X,Y,Z,Normalized Luminosity,Normalized Radius
171.10676,-492.69487,575.77943,0.00007,0.02068
412.87913,-1189.38194,1389.63311,0.00000,0.00319
561.70228,-1619.12403,1892.02635,0.00000,0.00082
300.53785,-866.65140,1012.96790,0.00001,0.00540
1212.88688,-3494.66823,4084.81337,0.00000,0.00040
454.12239,-1308.44056,1529.64981,0.00000,0.00291
1472.58557,-4242.95848,4962.23900,0.00000,0.00031
2307.60440,-6648.57438,7776.44184,0.00000,0.00017
351.70691,-1012.22776,1183.54443,0.00001,0.00297
264.90708,-762.61237,891.97152,0.00001,0.00897
2251.19878,-6494.22372,7592.38224,0.00000,0.00019
979.53716,-2826.23607,3304.72075,0.00000,0.00063
574.22878,-1654.95946,1935.89549,0.00000,0.00192
1335.22616,-3855.87018,4505.34728,0.00000,0.00047
88.80507,-255.66560,299.10131,0.05690,0.69350
1216.39408,-3514.92941,4108.64551,0.00000,0.00037
307.87226,-888.23231,1038.38130,0.00001,0.00396
778.63597,-2248.11596,2627.86613,0.00000,0.00102
158.06354,-455.69870,533.03651,0.00002,0.00432
1164.55191,-3365.81689,3935.66091,0.00000,0.00054
778.81312,-2249.05288,2631.19353,0.00000,0.00098
1144.47911,-3303.06334,3862.46034,0.00000,0.00046
708.50960,-2045.66736,2392.91411,0.00000,0.00073
506.49433,-1462.44088,1710.76920,0.00000,0.00153
199.39639,-574.71198,672.61988,0.00004,0.01777
970.27818,-2801.17503,3278.14294,0.00000,0.00050
329.60391,-951.13054,1112.96114,0.00001,0.00427
181.84202,-524.99572,614.35753,0.00005,0.01394
1440.77902,-4163.91111,4871.57127,0.00000,0.00026
591.89416,-1710.04064,2001.35751,0.00000,0.00109
359.02908,-1037.53743,1214.36632,0.00000,0.00318
604.70704,-1748.22800,2047.01091,0.00000,0.00084
771.53817,-2220.42975,2597.16628,0.00000,0.00086
1416.22576,-4078.32617,4773.92223,0.00000,0.00036
833.33899,-2397.62976,2806.32380,0.00000,0.00069
367.51500,-1057.40251,1237.50893,0.00000,0.00490
977.92924,-2815.98981,3296.95485,0.00001,0.00070
1083.02279,-3120.53698,3652.19665,0.00000,0.00059
176.60420,-508.28035,594.94469,0.00000,0.01352
607.14110,-1749.79237,2047.54644,0.00005,0.00110
804.48908,-2318.60161,2713.48966,0.00000,0.00104
504.25834,-1453.24047,1701.25029,0.00000,0.00175
686.00892,-1976.90157,2315.29489,0.00000,0.00106
2798.43834,-8061.24881,9435.36399,0.00000,0.00011
690.08139,-1988.89251,2328.34398,0.00000,0.00097
543.13267,-1565.59338,1833.01197,0.00000,0.00105
289.02672,-832.75331,975.16641,0.00000,0.00231
432.24508,-1245.66651,1458.82194,0.00001,0.00155
2125.07180,-6118.09632,7165.69010,0.00000,0.00020
524.25359,-1508.54175,1766.45235,0.00000,0.00118
1111.99212,-3199.79700,3748.84217,0.00000,0.00058
359.84772,-1036.14866,1213.87518,0.00000,0.00388
838.23676,-2414.84024,2829.83394,0.00001,0.00110
266.02848,-767.32724,898.39974,0.00000,0.00568
2088.73338,-6029.88176,7060.51027,0.00001,0.00007
1264.81326,-3648.65579,4272.41500,0.00000,0.00042
299.17776,-863.54303,1011.43172,0.00000,0.00431
395.82491,-1142.68277,1337.82866,0.00001,0.00525
2114.05720,-6104.44520,7150.26884,0.00000,0.00027
1370.02621,-3957.41425,4637.41785,0.00000,0.00044
819.50654,-2361.70169,2767.18645,0.00000,0.00071
486.00436,-1400.63743,1640.94651,0.00000,0.00112
316.51893,-912.31284,1069.12304,0.00000,0.00179
448.98164,-1294.11087,1516.61852,0.00000,0.00262
633.07375,-1824.67394,2138.96824,0.00000,0.00091
405.86067,-1171.25305,1372.78551,0.00000,0.00144
130.21475,-375.14804,439.64335,0.00000,0.04990
187.40655,-540.23949,632.97347,0.00027,0.00820
1139.01212,-3286.30318,3852.54847,0.00003,0.00048
1142.14878,-3297.56587,3866.35721,0.00000,0.00044
1666.08630,-4810.51349,5641.48289,0.00000,0.00009
2345.77377,-6769.39366,7938.42791,0.00000,0.00000
630.28623,-1811.76822,2123.30290,0.00000,0.00117
656.04729,-1886.58581,2210.62093,0.00000,0.00110
728.54781,-2096.33041,2457.27842,0.00000,0.00102
817.98233,-2354.25711,2760.17956,0.00000,0.00085
697.16868,-2007.04656,2353.44809,0.00000,0.00105
186.63976,-537.09435,629.54570,0.00000,0.01834
175.92896,-506.07004,593.37793,0.00005,0.02379
606.22079,-1745.49415,2047.19274,0.00006,0.00138
722.20969,-2079.66066,2439.00524,0.00000,0.00077
648.24029,-1862.72708,2184.41826,0.00000,0.00150
347.83584,-999.47466,1172.02201,0.00000,0.00498
1134.98688,-3261.09141,3824.67589,0.00001,0.00071
346.27809,-994.99361,1167.00289,0.00000,0.00410
610.76614,-1755.02137,2058.80977,0.00001,0.00080
1260.78765,-3624.14551,4250.74828,0.00000,0.00039
894.76288,-2572.35720,3017.07260,0.00000,0.00081
238.14235,-684.35402,802.73424,0.00000,0.01188
305.28910,-877.13294,1029.21578,0.00002,0.00263
764.11037,-2199.33781,2581.14337,0.00001,0.00089
504.44150,-1451.74215,1703.72932,0.00000,0.00098
2067.31114,-5945.96230,6975.78446,0.00000,0.00022
1680.51553,-4835.66392,5673.57436,0.00000,0.00027
586.23526,-1686.67591,1979.82950,0.00000,0.00111
1319.15237,-3800.96591,4456.73551,0.00000,0.00041
640.59545,-1847.39638,2166.77201,0.00000,0.00133
274.13493,-790.09031,926.62061,0.00000,0.00836
612.79230,-1766.63627,2072.34078,0.00001,0.00147
826.09395,-2384.21438,2796.57246,0.00000,0.00072
133.40610,-384.29349,450.64954,0.00000,0.04566
689.17668,-1986.98257,2331.63917,0.00022,0.00107
976.71518,-2813.96048,3302.45495,0.00000,0.00081
85.44896,-245.73402,288.17764,0.00000,1.00000
857.02961,-2477.67304,2902.18171,1.00000,0.00093
382.98196,-1106.48592,1296.35664,0.00000,0.00399
555.00051,-1602.96479,1878.44120,0.00001,0.00081
465.56329,-1343.94207,1575.82991,0.00000,0.00166
246.63819,-708.26921,831.44037,0.00000,0.00785
548.46699,-1574.80029,1848.86546,0.00002,0.00122
476.57368,-1369.47376,1607.67865,0.00000,0.00142
480.36526,-1379.84370,1620.54032,0.00000,0.00338
380.48439,-1092.14655,1282.29707,0.00000,0.00163
898.20621,-2582.73638,3033.47936,0.00000,0.00060
718.90293,-2065.90412,2427.15390,0.00000,0.00109
488.90436,-1401.14262,1636.69411,0.00000,0.00194
146.41635,-419.91109,490.73526,0.00000,0.01933
4981.73232,-14285.34419,16680.30316,0.00011,0.00003
403.65457,-1157.42213,1351.88279,0.00000,0.00173
1294.86191,-3713.38851,4337.98279,0.00000,0.00052
259.91307,-745.54793,871.36736,0.00000,0.00254
950.29682,-2730.20279,3188.31119,0.00000,0.00075
798.40716,-2291.93946,2676.09003,0.00001,0.00113
460.12045,-1321.51785,1543.70294,0.00000,0.00130
790.45716,-2269.03615,2651.29057,0.00000,0.00108
614.17739,-1764.29467,2061.44328,0.00000,0.00119
1573.60834,-4517.92136,5277.78971,0.00000,0.00031
205.18663,-589.07087,688.61308,0.00000,0.00556
738.71381,-2120.52360,2477.67734,0.00000,0.00088
510.91377,-1466.44981,1713.50021,0.00002,0.00220
7225.12995,-20778.62270,24255.59229,0.00000,0.00003
2092.65947,-6016.44661,7024.10848,0.00000,0.00019
3271.95958,-9411.55847,10990.12723,0.00000,0.00016
861.89451,-2477.71762,2893.32122,0.00000,0.00115
616.88941,-1773.27485,2071.07545,0.00000,0.00086
335.85916,-967.00214,1129.37299,0.00000,0.00146
474.67110,-1366.58374,1595.76737,0.00000,0.00060
620.93341,-1787.29718,2086.92468,0.00000,0.00081
452.70056,-1303.06193,1521.73429,0.00000,0.00329
745.21639,-2144.00682,2504.21138,0.00000,0.00153
654.05617,-1882.14181,2198.68075,0.00000,0.00079
315.17957,-906.42037,1059.13401,0.00000,0.00646
1360.71554,-3910.50742,4567.25630,0.00000,0.00041
471.20066,-1354.69918,1583.19467,0.00001,0.00147
819.00126,-2353.18805,2750.25191,0.00000,0.00079
266.91959,-766.74435,896.32439,0.00000,0.00160
439.58343,-1262.80405,1476.23931,0.00000,0.00107
945.13173,-2716.91751,3176.02368,0.00001,0.00080
729.68274,-2100.45900,2454.62116,0.00000,0.00089
708.38281,-2038.10736,2381.51609,0.00000,0.00091
1018.83288,-2932.46848,3426.42471,0.00000,0.00055
279.94738,-805.38198,941.60063,0.00000,0.00506
391.35170,-1125.61644,1315.85734,0.00000,0.00235
396.54425,-1141.07398,1334.25403,0.00000,0.00296
763.36721,-2180.27968,2548.34824,0.00001,0.00101
298.93265,-854.13529,998.67490,0.00000,0.00245
566.02217,-1617.19757,1890.83810,0.00000,0.00227
723.95968,-2070.88787,2419.35506,0.00000,0.00117
763.91819,-2185.21229,2553.81264,0.00001,0.00094
2576.10987,-7380.28324,8622.27477,0.00000,0.00014
338.70410,-969.80435,1133.16796,0.00000,0.00502
419.62952,-1201.48558,1404.16775,0.00000,0.00173
6557.25205,-18762.93082,21924.71331,0.00000,0.00003
1144.55890,-3278.34073,3831.16563,0.00001,0.00098
511.58293,-1464.53928,1711.30487,0.00000,0.00247
555.20086,-1590.05362,1858.56472,0.00000,0.00126
1892.42857,-5409.09592,6320.59289,0.00000,0.00023
408.53261,-1168.10659,1365.58475,0.00000,0.00298
898.54323,-2570.63180,3005.04011,0.00000,0.00098
754.22085,-2157.85710,2522.46123,0.00000,0.00071
228.18002,-652.43954,763.10937,0.00000,0.01269
857.44563,-2451.21329,2867.18118,0.00000,0.00066
427.16967,-1221.41435,1428.67186,0.00000,0.00382
758.01815,-2167.02769,2533.90052,0.00002,0.00071
276.10062,-790.90775,925.03379,0.00000,0.00799
404.46997,-1157.77383,1353.60546,0.00000,0.00107
619.28421,-1772.69179,2072.90626,0.00000,0.00096
1984.94260,-5677.21003,6640.51751,0.00001,0.00018
310.29366,-887.72271,1038.56321,0.00000,0.00266
421.10428,-1201.57189,1405.88796,0.00000,0.00225
571.79094,-1630.33994,1907.51571,0.00000,0.00162
742.03566,-2119.66979,2479.28887,0.00001,0.00084
207.72690,-593.33209,694.02297,0.00000,0.00375
615.87874,-1759.16384,2058.02527,0.00000,0.00101
767.76055,-2191.69312,2564.05056,0.00000,0.00077
473.63704,-1352.12099,1582.17595,0.00002,0.00312
335.15163,-956.86362,1119.55183,0.00000,0.00285
836.97527,-2389.06183,2795.66558,0.00000,0.00088
834.08940,-2379.83289,2784.61486,0.00000,0.00074
1491.83259,-4252.46473,4976.86588,0.00001,0.00031
165.65555,-472.77921,553.38012,0.00000,0.01316
537.35970,-1531.66575,1792.68256,0.00000,0.00085
1148.93304,-3274.17081,3834.57295,0.00000,0.00059
1728.62066,-4923.53384,5764.81467,0.00006,0.00032
714.93386,-2036.50298,2384.59116,0.00000,0.00131
410.68934,-1172.35394,1372.65899,0.00000,0.00434
945.24911,-2696.28141,3156.65115,0.00000,0.00083
3873.64284,-11052.01722,12942.50583,0.00000,0.00010
162.63328,-464.65043,544.16280,0.00000,0.02300
608.24864,-1735.60806,2032.43544,0.00000,0.00103
411.18376,-1173.26477,1373.84018,0.00000,0.00162
1708.82665,-4883.50438,5713.16194,0.00008,0.00052
517.46880,-1478.32335,1729.65637,0.00000,0.00133
244.06057,-697.63899,816.45461,0.00000,0.00470
583.79428,-1670.77606,1955.56260,0.00000,0.00114
5847.41671,-16712.51964,19566.62708,0.00000,0.00007
249.78731,-715.00328,837.22466,0.00001,0.00573
543.84636,-1553.46940,1818.70894,0.00000,0.00116
1290.89993,-3686.47208,4317.18603,0.00000,0.00024
580.97970,-1659.22876,1943.01916,0.00001,0.00076
239.94965,-685.69325,803.28157,0.00000,0.00905
379.21553,-1083.30054,1269.19143,0.00000,0.00195
853.62923,-2440.55423,2858.02500,0.00000,0.00066
345.42023,-987.72141,1156.94125,0.00000,0.00260
3361.08857,-9603.21045,11251.91514,0.00002,0.00010
419.62701,-1200.07747,1406.08891,0.00000,0.00155
690.98047,-1980.93372,2315.46923,0.00000,0.00075
285.40091,-818.54903,956.65666,0.00000,0.00490
1200.93877,-3442.01380,4020.89775,0.00000,0.00044
2326.78124,-6670.99806,7798.55802,0.00000,0.00021
399.75554,-1145.56101,1339.51953,0.00000,0.00351
558.31167,-1600.30406,1870.97898,0.00001,0.00088
138.79734,-398.04525,465.68743,0.00000,0.02347
262.94365,-753.96104,881.87676,0.00000,0.01066
2079.72104,-5968.99807,6978.28707,0.00000,0.00024
311.01470,-892.18666,1043.43570,0.00000,0.00252
1108.37249,-3178.93596,3718.02575,0.00015,0.00027
279.67522,-801.39787,937.63739,0.00002,0.00899
145.70667,-417.73367,488.71895,0.00000,0.01820
403.07323,-1155.14201,1350.99192,0.00001,0.00318
1179.97101,-3381.92376,3956.44366,0.00000,0.00042
427.98409,-1225.80601,1433.72050,0.00001,0.00170
243.00840,-696.40910,814.81902,0.00011,0.00947
326.95646,-938.17596,1097.77417,0.00000,0.00691
206.72654,-594.35725,695.34163,0.00000,0.01648
1555.74363,-4475.10911,5234.59330,0.00000,0.00035
166.09202,-477.48986,558.68926,0.00002,0.00640
851.27239,-2448.47846,2864.33308,0.00001,0.00080
711.05882,-2043.93174,2391.35212,0.00003,0.00092
844.31258,-2427.58425,2840.67465,0.00000,0.00093
210.84981,-605.22278,708.40367,0.00004,0.00782
492.56956,-1414.36655,1655.18815,0.00000,0.00234
1359.28755,-3903.80808,4568.41867,0.00000,0.00037
451.93548,-1297.06552,1518.95350,0.00000,0.00272
2192.15137,-6290.48700,7362.62545,0.00002,0.00036
433.50798,-1244.08440,1456.52475,0.00000,0.00323
692.70842,-1989.28013,2329.63986,0.00000,0.00126
630.42285,-1809.79519,2119.50856,0.00000,0.00137
618.11458,-1774.19798,2077.02358,0.00000,0.00190
439.12132,-1260.54425,1476.23566,0.00000,0.00145
246.69423,-708.86002,829.93926,0.00000,0.00298
393.64184,-1130.40233,1324.00394,0.00000,0.00215
656.39791,-1885.62077,2207.85900,0.00000,0.00099
500.25364,-1437.82196,1683.98207,0.00000,0.00109
951.56425,-2735.87628,3204.54491,0.00001,0.00092
246.65132,-706.78992,827.51140,0.00000,0.01196
393.51685,-1127.15874,1319.47792,0.00000,0.00176
875.41071,-2505.87127,2933.54637,0.00000,0.00069
132.84105,-380.54912,445.72292,0.00000,0.01518
785.38694,-2249.17682,2634.25113,0.00002,0.00130
4066.23589,-11653.18629,13646.79223,0.00000,0.00004
406.35336,-1163.29306,1363.01855,0.00000,0.00481
2079.30329,-5948.50257,6969.88658,0.00012,0.00020
1250.37759,-3579.40989,4193.29264,0.00000,0.00028
1172.63504,-3353.30974,3931.14006,0.00000,0.00049
583.05348,-1668.90102,1956.75445,0.00000,0.00174
1251.76460,-3580.47545,4196.71788,0.00000,0.00058
1103.37729,-3155.91238,3699.36519,0.00000,0.00059
154.95502,-443.72495,519.99029,0.00000,0.00611
892.52408,-2557.93586,2997.66254,0.00000,0.00114
658.18041,-1884.91653,2210.04866,0.00000,0.00157
413.62444,-1184.29429,1388.69239,0.00000,0.00376
231.37778,-663.00157,777.17774,0.00000,0.01427
274.78563,-787.42067,923.15573,0.00004,0.00245
1349.40747,-3871.32471,4534.27954,0.00000,0.00042
834.64038,-2394.42594,2804.64610,0.00000,0.00063
86.56639,-248.34472,290.90559,0.00000,0.86898
474.02905,-1360.25366,1593.13477,0.00002,0.00154
1349.04583,-3872.66345,4536.57001,0.00001,0.00055
179.62169,-515.66854,604.03985,0.00000,0.01718
148.48273,-425.92423,499.11553,0.00000,0.00468
285.51741,-818.89835,959.72546,0.06421,0.00509
1957.39675,-5621.79982,6587.38993,0.00000,0.00024
1155.85604,-3320.17404,3890.04075,0.00000,0.00066
221.06844,-634.83647,743.75097,0.00005,0.00747
179.69884,-516.04059,604.56256,0.00004,0.01248
520.55332,-1495.20682,1752.41725,0.00001,0.00310
602.44207,-1731.04266,2029.08129,0.00000,0.00167
88.17432,-252.85559,296.31089,0.00000,0.88403
375.88506,-1078.05315,1264.01380,0.00002,0.00120
391.93972,-1125.62153,1316.43411,0.00004,0.00281
267.36406,-768.33556,898.71286,0.00000,0.00429
846.60711,-2431.55281,2843.73172,0.00000,0.00087
1089.70088,-3128.53337,3659.52498,0.09990,0.00044
306.29088,-879.59060,1029.08445,0.00000,0.00345
399.07308,-1146.29643,1341.00087,0.00000,0.00308
305.60366,-877.90755,1027.10999,0.00001,0.00395
1178.50545,-3387.00670,3961.98939,0.00000,0.00045
379.42612,-1088.90482,1276.48953,0.00000,0.00286
839.85862,-2409.14742,2825.84280,0.00001,0.00113
511.50585,-1466.29599,1719.53366,0.00000,0.00187
653.36800,-1873.19328,2196.99649,0.00001,0.00084
3174.59348,-9102.60229,10676.54823,0.00000,0.00014
634.53573,-1822.62159,2137.28217,0.00000,0.00124
148.86379,-427.20053,500.72484,0.00000,0.01999
994.78578,-2856.06142,3348.79293,0.00000,0.00049
1341.45839,-3851.94054,4518.38865,0.00000,0.00049
245.71506,-705.08337,826.91970,0.00000,0.00434
379.55652,-1089.31231,1278.08323,0.00000,0.00181
226.57134,-650.32768,762.85604,0.00010,0.00256
620.94071,-1769.01322,2072.08842,0.00000,0.00178
1147.97357,-3270.49005,3830.65868,0.00000,0.00055
339.64048,-967.81305,1133.74554,0.00001,0.00248
574.12535,-1635.98149,1917.02082,0.00000,0.00167
1246.99209,-3553.63146,4163.85802,0.00001,0.00060
842.80373,-2403.39825,2817.93154,0.00000,0.00085
374.19553,-1066.25674,1250.25498,0.00000,0.00187
372.09234,-1061.26608,1244.29562,0.00001,0.00437
289.62915,-825.77556,968.02140,0.00000,0.00309
295.67606,-843.29507,988.73870,0.00000,0.00549
290.49677,-827.87777,971.05375,0.00000,0.00229
433.90380,-1238.82411,1452.15232,0.00000,0.00246
1203.91878,-3434.33042,4026.86107,0.00001,0.00048
481.89075,-1375.74322,1613.29725,0.00001,0.00121
652.19939,-1862.24623,2183.78210,0.00001,0.00128
999.44448,-2854.44363,3346.60639,0.00000,0.00052
602.72886,-1722.65263,2019.34250,0.00000,0.00131
749.96944,-2143.50343,2513.63565,0.00000,0.00169
629.03744,-1796.48935,2107.16624,0.00000,0.00107
1227.71365,-3506.85224,4112.74241,0.00000,0.00041
544.89534,-1557.52284,1826.60563,0.00000,0.00141
293.55712,-839.25693,984.51724,0.00000,0.00425
266.05823,-759.73426,891.01834,0.00000,0.00280
393.94881,-1124.76357,1319.13680,0.00000,0.00195
1025.80504,-2926.32002,3434.34428,0.00000,0.00083
719.45083,-2052.56078,2408.31974,0.00000,0.00079
361.35870,-1031.21824,1210.17048,0.00001,0.00247
835.22647,-2383.18929,2796.80182,0.00001,0.00127
451.68952,-1290.57957,1514.01681,0.00000,0.00232
537.56693,-1534.98971,1800.91949,0.00000,0.00210
503.79205,-1438.56063,1688.26404,0.00000,0.00195
609.64515,-1741.51288,2044.02884,0.00000,0.00129
636.57402,-1817.45550,2134.17417,0.00000,0.00135
3569.13648,-10214.25678,11979.49119,0.00000,0.00005
315.83040,-903.80009,1059.82958,0.00000,0.00702
690.38802,-1975.20743,2315.90840,0.00000,0.00097
342.01651,-978.56818,1147.48230,0.00000,0.00407
694.02646,-1985.65383,2328.57538,0.00000,0.00099
201.21313,-576.14026,675.48465,0.00000,0.01426
701.31004,-2005.12732,2352.06938,0.00000,0.00096
774.95950,-2215.39701,2599.14603,0.00001,0.00102
252.50887,-722.47368,847.33529,0.00000,0.00188
684.98395,-1961.37648,2301.61560,0.00001,0.00196
856.58730,-2451.99877,2877.00491,0.00000,0.00056
706.25463,-2020.02889,2371.44033,0.00003,0.00104
591.48066,-1690.14754,1983.76178,0.00000,0.00172
368.36823,-1052.95556,1236.36966,0.00000,0.00540
800.31662,-2288.27267,2687.81757,0.00001,0.00091
883.44393,-2525.17707,2965.94822,0.00000,0.00112
738.53534,-2110.14352,2477.51282,0.00000,0.00080
1012.84089,-2894.57725,3398.65767,0.00000,0.00065
1110.88615,-3174.84546,3728.61892,0.00000,0.00060
644.33103,-1841.90816,2162.75814,0.00001,0.00107
430.91544,-1232.99427,1447.30113,0.00000,0.00253
562.04143,-1608.25164,1887.66003,0.00000,0.00137
202.59801,-580.24490,681.01440,0.00000,0.01630
307.18422,-879.08441,1032.51242,0.00000,0.00823
1745.13331,-5002.36110,5870.17287,0.00000,0.00028
1856.77803,-5319.05942,6243.21716,0.00000,0.00045
1560.62563,-4477.60742,5256.28372,0.00000,0.00031
324.29402,-928.82123,1090.57468,0.00000,0.00189
858.00028,-2458.63178,2887.88929,0.00003,0.00154
815.91752,-2341.08155,2750.42661,0.00001,0.00102
795.71221,-2280.65151,2679.64104,0.00000,0.00083
6463.89585,-18458.19314,21679.61508,0.00000,0.00002
923.40460,-2637.43001,3098.96332,0.00000,0.00086
177.28244,-507.25204,595.71047,0.00000,0.01702
1446.19189,-4135.80845,4861.44481,0.00000,0.00035
316.09580,-904.46312,1062.62402,0.00000,0.00215
303.99730,-867.57796,1018.61960,0.00000,0.00444
1477.73224,-4217.03973,4952.65240,0.00000,0.00034
