X,Y,Z,Normalized Luminosity,Normalized Radius
309.36814604092456,998.2248103553347,-215.55104101555673,0.3839,0.3568
176.76950897142638,-797.8113773655275,213.13422296549948,0.5124,0.2446
723.6471958104146,-531.9901026767595,527.7105250425382,0.3986,0.8115
856.4958977827823,-93.49148811547468,-738.2482226751777,0.3449,0.1065
827.4910734132759,291.09368737945374,978.2437545677603,0.2414,0.2834
-464.1347119832742,-761.4267423904942,446.8920197070661,0.4241,0.5265
-511.8142617192836,-676.9740844003647,-96.64559255777385,0.5069,0.2667
-991.9551167066822,12.034608840389069,-715.9653298585908,0.2937,0.3977
421.45998604278543,-741.5152343575963,556.7593413598822,0.4119,0.805
-695.6437597541546,-796.3267515550401,410.518705966331,0.3451,0.9106
549.0744671450082,-651.5296496174336,959.7775052432339,0.259,0.9456
-987.7866772181454,-495.6849752810213,-758.4176437023871,0.2261,0.6547
529.0794295418468,-794.6968232626788,-146.82340230453246,0.4423,0.4048
-744.3268552256459,928.8169660649617,-357.43133236172423,0.2825,0.251
-97.78144905982629,-595.3139996062804,546.4835846085575,0.53,0.6262
228.14230551886544,-820.0487277826835,562.7731870019827,0.4109,0.6228
683.0100455886613,-804.6637764350539,755.565086739108,0.2506,0.4219
-455.93883199777997,-24.70878472452887,706.2073540815541,0.5145,0.2118
-2.5692027957903747,154.86132000274188,-679.6691085313669,0.5975,0.3838
-462.21151540895096,689.9506374291564,-825.4001551467795,0.324,0.3662
-138.12781319487067,780.0568036463981,471.60456365192,0.4677,0.6654
-327.61366117403077,-800.54853642119,-170.60386011150786,0.491,0.1832
776.9370144073537,-915.9162322644477,-539.749644702991,0.2398,0.1219
-792.8620675990841,324.99126285644957,-873.866345817192,0.2934,0.4689
-74.51668082088815,719.7604331116638,936.1741092426751,0.3169,0.4579
-101.43943334596986,734.6669025395904,912.4501413474356,0.3211,0.7237
301.0962911236322,-463.07445601457766,-169.57556149898755,0.6664,0.4136
-245.4366932133554,680.479700515265,895.1409966862252,0.3355,0.9703
255.5751882827908,-154.76135462075206,-832.833678727706,0.4892,0.7475
397.45149595029943,-301.3677097456841,-18.61407821479429,0.7118,0.2495
959.2785567298718,-155.97744893379752,-369.4737862541457,0.3997,0.8888
-805.1469057795119,7.013379832948544,917.6430793963837,0.2952,0.917
286.0095656938254,85.04383228616985,-587.6258464535526,0.6195,0.7892
-943.1185575266177,515.054942829335,524.0801072945494,0.3097,0.3277
-697.6814665567821,-207.9017310568097,-778.3833367720501,0.3847,0.9719
-826.2967319488674,68.79356177158684,-260.40169757001763,0.4982,0.9223
376.49444404854785,-378.89464174582895,-379.0272092395901,0.6219,0.9473
699.424425981095,-808.8460695598114,-112.09220380823365,0.3793,0.6853
802.4970113942793,290.4921976563994,-312.4402530670187,0.4753,0.1033
949.3890352643546,-282.20129102235126,-94.47712141020997,0.4256,0.2494
601.9103823295577,818.7228186694094,936.6937601521306,0.2021,0.4827
-997.053396625364,884.533948564381,341.1110912354218,0.2057,0.4789
286.03663903891106,546.7086488934444,-559.3105749667948,0.5192,0.2292
-736.7077374875581,-262.2616514116412,-334.30743709233354,0.509,0.8723
719.5809229324777,-512.9393394138466,599.4814113871487,0.3835,0.2438
986.2290905772243,-59.025085381027225,-827.9311251794486,0.2558,0.2238
-402.71951365134146,-356.2468155911722,-343.36168333056685,0.6317,0.4659
67.90274687695978,-634.935376920007,-251.6413452250963,0.6037,0.8376
303.47081091628775,69.23530815332992,-696.122036294335,0.5597,0.8246
-801.7058566971722,-276.50191500031804,-388.2035174952774,0.4615,0.5487
-478.29450804851285,615.0745952523425,-376.7944661445804,0.5003,0.1004
354.90897291440206,992.8342906194794,603.5956281397043,0.2986,0.7009
-986.568320879559,150.2547103047625,-564.0155008677839,0.3382,0.1613
-543.220435715553,-136.9984748386164,-187.9166104702614,0.6588,0.8285
-62.83710543406801,567.0915357895265,-277.98756352087287,0.6336,0.6446
-139.48911732426984,-74.48896688368814,509.67318849332264,0.6919,0.3743
894.3444036070373,317.7380759745313,-489.6423293719989,0.3834,0.9739
-795.3686751118815,-234.24257881127892,-979.2479031497426,0.2592,0.262
133.35512471154448,502.20834077219,158.21642238629852,0.6864,0.3718
-851.5552186290743,790.2304804410178,463.6466595875886,0.2778,0.9934
990.1647871967259,-409.8261854212817,-437.7246930849466,0.3317,0.7087
719.9279029508186,-941.1362898299243,-921.1266134577094,0.1335,0.1311
-418.0910048714927,415.2328623036965,480.4642880168667,0.561,0.6538
544.9566564198576,-704.6704132015914,-526.3916525711657,0.4026,0.1564
-788.4586319798273,-693.4985567095662,181.88539563256654,0.3847,0.3424
677.0960564508975,-428.5134962260835,-805.0704126618366,0.3442,0.4309
422.9261215119734,181.54177448019846,-62.65047162485348,0.7318,0.1481
-608.6270025835265,7.302469193047614,417.97532467732026,0.5737,0.8729
142.07432451426325,-806.0008281277564,-270.4887430091105,0.5023,0.9026
-271.8175181032576,815.8911721432025,138.54177483496255,0.4971,0.6517
-323.96300228102496,52.69263904260606,120.64594373596447,0.7981,0.4266
750.1616682938811,671.8641846342286,-610.163923973955,0.3202,0.165
637.3217397288383,-127.67228690517561,-572.0822466621624,0.5001,0.7125
-826.8366271470893,-311.8919603643835,-306.51183449277084,0.46,0.2916
426.549078246524,630.2825612400304,61.451919527993596,0.5592,0.3802
872.8911110986969,-911.2117793832706,-198.99114744807525,0.2625,0.6261
574.0150024207608,-475.4090903854666,-512.4285343084593,0.4778,0.2443
-79.20050938444786,192.99715418245478,766.0067403483711,0.5416,0.5576
-811.4283194973824,692.1115625774491,-309.60508921065014,0.3588,0.5477
485.4679725744327,-781.4352859359186,-188.14949150643884,0.4579,0.2272
871.7728371650719,-881.204830354571,-725.2800987984517,0.1708,0.1455
-411.52319649666765,927.8264679979152,-224.2181932241392,0.3999,0.8495
674.9744331483973,-717.8733460899209,-207.04924508472607,0.4187,0.3536
-464.7961805596825,-902.6219419621251,995.950363698656,0.1789,0.4609
-316.9169814844661,669.503477563115,656.1398785108781,0.4287,0.6872
384.8442155710095,-965.800199938885,388.38795529679214,0.3592,0.7514
-662.3986158050408,581.2922015656532,128.2180152431756,0.4858,0.6434
596.6990839844532,133.3498593913621,790.9524265491307,0.4228,0.7792
329.1862220470173,711.900699453754,420.24102456644914,0.4863,0.7802
-822.9552366837343,-566.7410052500477,-723.9793461532922,0.2876,0.3204
-68.54916971464456,-121.64431737280745,550.585437645103,0.6721,0.6386
332.51630559156683,-8.677621867743369,663.0037134548129,0.5717,0.7482
-17.001849993984138,694.5114423742418,826.7666312672479,0.3765,0.1295
106.95708782308202,-990.1291604784918,-486.1317995811705,0.3602,0.2248
-256.6354857881514,-66.66115973261208,-470.716885645454,0.6881,0.8162
369.76606250390864,-16.38631524430116,263.0234002451857,0.7378,0.4864
732.5787086834864,-445.3213547496657,-523.3860464780439,0.4201,0.2459
707.755169449825,-565.0811616939479,-530.3001361540792,0.3941,0.9567
-870.5810811283081,614.977478295343,180.96772415522446,0.3758,0.9189
688.1409374483787,-84.68339471411991,-483.07483939844235,0.5121,0.4538
171.89292958205579,996.7223787757328,-311.51926773684033,0.389,0.5939
209.15802738192042,660.143158069538,727.7478357567227,0.42,0.6612
-618.9417720324901,397.5287691608628,-602.9742643231161,0.4509,0.3003
-843.2648486290144,-171.66432286265774,976.1432097861041,0.2487,0.872
76.65543679918483,477.81921624677784,-736.1074449162547,0.4914,0.8922
807.0211220370502,461.52590723801245,-500.20927843875353,0.3905,0.9005
888.6116637585549,18.13836815184993,-27.851726176487887,0.4866,0.7167
537.3581511006621,190.4030987523422,944.7302637772063,0.3629,0.3848
-286.90158776338444,7.144319230455267,-823.0385317115074,0.4968,0.1628
464.3003836205803,445.743503527689,815.9590773024759,0.4,0.5757
796.1965020725938,-962.2917684351011,585.1002194327243,0.2037,0.6533
-219.11230788873763,196.9960087808024,-342.68786707277843,0.7391,0.3803
473.4234893526891,-139.2826865218684,-177.9298271944183,0.6971,0.2218
-646.0230640862012,22.051354965097175,-739.0029536379241,0.4331,0.758
-559.8000711052156,1.9979877489204227,-103.81793440456886,0.6713,0.1066
-962.3482061562871,595.6669029023512,813.9301234105599,0.1951,0.6981
556.2337748462708,-969.9109937288013,861.1899032564927,0.1852,0.1758
88.43480461012928,513.3070187781666,378.0700308522298,0.6284,0.2464
-873.7056614017056,-541.5261175473689,-983.4644153596679,0.1787,0.7723
431.6702955040864,453.6144024114849,-69.03077898313506,0.6363,0.9595
267.071508194698,625.3993257415184,750.148774345352,0.4154,0.2058
137.2293341470006,605.6027487896108,801.7502698913052,0.4145,0.3831
-418.05585402923646,-436.6543260246099,-301.4075895941828,0.61,0.9497
-115.31871172605815,-939.9430804168511,347.8235336918865,0.4175,0.7863
-565.4613825098356,665.6568137554798,-663.1120551461731,0.3669,0.758
-709.063481629498,-856.5257578693257,-624.909115591066,0.2636,0.6243
871.7683398154611,-473.7386832326265,-198.14683971751276,0.4159,0.4867
-699.1590739767698,-522.6064902943068,-725.2100029292272,0.3448,0.923
-883.1305682321508,176.90658155697201,-939.3234280841898,0.2487,0.5691
-685.1862778309439,-983.6544205055908,962.2957863233087,0.1125,0.1624
-81.16174362054494,-681.2707547174257,-445.9467230144578,0.5276,0.2154
75.05653764378599,547.1098589182586,871.1794447321713,0.4045,0.8693
913.2369665467829,-954.3183707725738,841.0816518656707,0.0959,0.2208
182.38187018184044,-917.7759023449139,-302.41714792599316,0.4322,0.5804
403.19293867758165,891.3928061074919,138.4114675958824,0.4295,0.3225
-757.9975922699227,130.71926040701965,94.38806601561441,0.5526,0.9444
-849.0137786320447,929.2280214248797,219.186679167585,0.2624,0.931
-498.19113585683806,883.2733136913107,-345.5251361024592,0.3815,0.4878
-724.5596158705582,-718.2834691332496,-965.285354622843,0.1891,0.5153
73.56748248434155,-594.3435997797097,454.20755587150825,0.566,0.3161
229.9944642978428,263.22703907769323,-421.0991154760733,0.684,0.4494
-605.8399463335038,883.6697743273273,502.8804171142524,0.3167,0.4334
31.055326240728164,810.98457523313,-728.6640076171971,0.3703,0.1327
-38.992853624095574,614.8611494013014,49.92552017099388,0.6431,0.5159
834.1384767265142,-326.670804925669,-342.15501365734883,0.4464,0.7364
10.256136747695905,416.64356129508906,92.13906397406686,0.7536,0.3529
-270.2462750656438,818.3044974091729,404.5299611535827,0.4504,0.4294
221.38531303451532,117.87948040717833,588.6816515786386,0.6306,0.2527
555.2649724865764,781.7029765793459,531.8875698210736,0.3669,0.2856
803.5779625930984,944.1634691811555,-527.2609219042763,0.2221,0.8208
-193.24163593397907,-791.3243019552854,339.3416620326859,0.4905,0.1693
670.1849529122828,464.8039607714163,-860.3776018140412,0.3155,0.341
847.8004840932992,-510.0268949452227,-755.554374126344,0.2813,0.4697
-364.5330571278373,-582.6196221422858,599.305542409701,0.4735,0.1196
-942.3107486196078,933.2344009702158,208.75921924888075,0.2249,0.5118
998.2423255559361,628.8432298252917,284.1777653221227,0.2994,0.2397
-198.48978530425995,-708.5588663714901,249.21549364250313,0.5515,0.4036
-31.672182260315026,340.5963939907215,-322.74080601795754,0.7285,0.6394
790.8046418214178,974.0868672871484,969.810868593552,0.0844,0.2103
207.05321457772652,-464.7269117013901,278.9173783589181,0.665,0.6307
503.8773179231516,54.7089618060254,-160.89410799884467,0.693,0.6092
893.8426005266144,-260.6973434077786,140.5464304231873,0.4563,0.3155
-361.3302847580087,-924.2255261282542,-251.27179353987094,0.409,0.4073
731.4796824543785,934.9489027004777,250.77564591220562,0.2995,0.811
-208.30435020649224,259.6670369712931,796.2499707712457,0.5017,0.8355
842.9298049397678,-282.4070373298732,760.4944958133508,0.3246,0.3505
-323.3139796867355,-473.4870390029247,660.729516562079,0.4949,0.5257
-374.59081697364957,-458.4914202433632,-503.2301882234522,0.5514,0.9473
72.08194336015731,-373.1889967419528,-721.2054598731918,0.5293,0.8812
812.715519496245,103.43212627478965,-823.5340815617774,0.3293,0.4762
-430.9500683530621,-623.1370014659569,795.4821082776275,0.3658,0.286
363.1946624783893,-433.7894619485163,-82.38762141908751,0.6699,0.5462
48.80187668026201,506.0035604355114,-403.2467567232396,0.6254,0.3339
938.6359194509221,-99.42732433688548,543.3308143471684,0.3712,0.272
481.5650739725131,254.77424469124253,-167.4540021880522,0.6709,0.2547
-950.8990125426258,709.8463276915347,-509.42094915869853,0.2544,0.3811
-523.1470590356664,-541.6278747383606,262.22854463052977,0.5396,0.4406
-655.5372066423397,160.07137795107383,-370.1639427704815,0.5556,0.3394
-689.1220217080212,75.06476030334647,397.446090624901,0.5387,0.5569
-252.03641237750253,201.96630351145177,58.82976484606024,0.8105,0.722
-367.75098149059215,767.5603830527598,-370.6986076280192,0.464,0.1151
-920.7236707899668,-441.70790379023583,-74.1688935082185,0.4089,0.536
-393.81668320547374,-499.2342874372375,-783.7738428689252,0.4173,0.5842
-138.41132522192572,866.3364920089143,-419.50657212856606,0.4385,0.4484
645.4692208079825,788.4081781626383,160.1429427361029,0.4045,0.4048
596.4256124301367,-373.54395461575245,-819.1938780296,0.3765,0.1399
999.5172995590319,-39.24996477194736,-9.743956624295606,0.4225,0.7603
487.27921787610353,704.667085554712,361.89349734131974,0.463,0.6551
-70.85705692230442,-56.97038702372765,597.0271665478228,0.6513,0.5273
931.5198279390249,-449.17486279068305,-273.62443278741466,0.3824,0.416
-976.8407880047372,-624.6283472544138,358.7510782066606,0.2993,0.7062
443.4786130820655,-458.54611266317363,571.6388105876952,0.5055,0.855
-41.5983116429162,-516.346622898388,277.51653237109076,0.6607,0.6505
-143.6309178730029,314.61792240635964,81.93144066120271,0.7948,0.9442
-942.7384281177982,175.75439122020407,993.2505535225496,0.2029,0.7777
-736.2063134351105,-643.0698399020298,-609.863398102686,0.3348,0.6648
982.8113044465331,-872.6845289175928,-720.7641049975862,0.1346,0.5366
856.5337847907886,-859.7731547367708,-453.3662287772154,0.252,0.5892
-771.8959355601571,-646.197867560967,-421.1416862340493,0.37,0.3096
-217.45432377962823,198.89277975099367,437.4624914124256,0.6955,0.2897
-866.2094320842778,536.9497689530251,203.62290000976964,0.4,0.4015
-610.1781525283316,601.6556272591388,-20.235284400757223,0.5051,0.7336
-904.7707082142571,-291.5419878742058,968.3516664958001,0.2166,0.9931
194.00643148233462,-815.8605348042946,615.9327809215199,0.3993,0.1832
-881.1392788008739,-728.1558794901375,826.5575781179564,0.1856,0.1172
-912.25828622101,-640.9318649156071,347.4083816713105,0.3258,0.4178
-36.67798200227185,-485.399936558853,-551.9895605388174,0.5751,0.6046
837.1509789367606,-283.07855871573895,279.3818119540763,0.4649,0.5633
921.3217073190256,-468.9907278420675,448.7196044663856,0.3493,0.7462
-378.2632684944789,-713.3069561436857,665.4246066458284,0.3959,0.7726
-92.51475306022019,174.57400674332848,-412.103981434822,0.7361,0.7742
-258.5428116536315,-286.69971057387465,546.2244310637807,0.6138,0.9603
-660.6951615576118,492.5228492301728,-204.8317402489937,0.5097,0.1487
732.733401122407,-244.0810531945276,105.15883196206687,0.55,0.7108
-201.6942206278203,-661.3205215507725,-60.898772230404234,0.5993,0.4732
195.33089175557484,-831.1240214156144,3.43159396067108,0.5071,0.4173
900.1932236641785,226.86851470999522,641.524340773248,0.3485,0.8852
481.9148212819914,905.7843914759533,908.9277943591762,0.2086,0.8941
539.01694224824,-100.92646888221782,-109.52696959229627,0.6771,0.4485
185.99950619522338,-684.034553095659,-184.26409998006045,0.5771,0.544
421.82819376194016,276.0042938339759,-418.55902546546724,0.6217,0.8708
-54.964423871586064,261.0219021170699,-711.0026288982607,0.5616,0.3559
-17.8405895666898,-881.8445738162659,-322.0806856244809,0.4579,0.8331
905.6045436232255,606.7434194466273,-831.902295704601,0.2083,0.2555
813.9440141985378,192.1469791813281,605.4762217059265,0.4039,0.1439
-36.2088955100146,127.38462003208247,-324.94795156676435,0.7974,0.9444
-214.2596319075376,951.7541524579556,585.6540804544325,0.3431,0.1918
-755.8124448854935,7.908559590451091,-939.4851157447567,0.3038,0.3299
-781.4491637911483,71.3303127729348,-115.05681574035623,0.5421,0.8867
796.6293280595246,882.5072406010925,-144.61005489016281,0.3085,0.7318
985.7468971901317,420.78540261108947,586.974694269179,0.2945,0.237
-288.3006014739316,197.96538314063582,-837.8821823290967,0.4758,0.6997
-144.90706765792163,613.0916593797822,44.5813419363692,0.6354,0.5334
668.3336610839267,781.7155456355565,442.6681894143728,0.3535,0.5641
150.6173501234964,944.6065965761982,787.0104124812076,0.2848,0.4815
-919.8258006128431,66.51481744410262,-95.96898347601507,0.4647,0.4846
85.32152213405448,213.85611463130795,290.0699564940892,0.7862,0.9101
709.5713298909936,551.5564396452858,-474.2735606292639,0.4133,0.4603
513.5328506799904,791.9092763637016,-977.3170987389901,0.2156,0.5026
647.4101059698562,-415.7064510503154,745.4510639746259,0.3815,0.6207
233.455142841608,952.322123691667,-538.063938962366,0.3543,0.3452
-280.61964954423763,-789.6885802531173,-224.2108808074032,0.4991,0.5162
-527.309712280258,416.96188538909746,582.0308382289302,0.4866,0.1759
-468.8046337775497,-721.3023640124845,128.3821204818555,0.4978,0.2431
-370.2159885092202,231.98267911417815,919.0028375513609,0.4125,0.3484
433.5083187282012,900.3543497940348,-424.1126150358092,0.3733,0.1897
-523.0286634271006,888.7129445185658,-33.2878137748653,0.4043,0.9426
495.8200299360542,892.931649022237,931.2768666246602,0.202,0.6756
634.1637752507695,661.5373131671695,-939.6512134880326,0.2422,0.6693
393.61662520276764,513.9876036069797,552.5071533392486,0.5086,0.7895
463.55979429461127,632.0976820413691,860.966116585618,0.3278,0.1387
288.4431277347246,-376.88905726946723,-894.2992295065176,0.4155,0.992
-371.0736323112111,-413.14736661321456,-989.2210770558718,0.345,0.4776
-723.4740829101925,-839.0283790390088,486.4475460008998,0.3014,0.9813
-61.721954675954635,-614.7448776808666,213.5440493991107,0.6226,0.3455
-851.7999169213759,222.69187365350058,56.004787174246985,0.4907,0.243
-266.35200014167106,-984.3705516013006,-560.8150979239952,0.3281,0.4167
110.67962708649088,566.1090149872034,-858.2896013268644,0.403,0.4365
864.6640469612485,684.828018827925,-698.4193382633098,0.2462,0.9745
-298.291694270888,-734.3396529283021,-946.7485046887223,0.2871,0.1079
337.52089921799575,-854.7700683828152,475.87409688351886,0.4025,0.8096
35.64130799869463,-85.47708298683165,-660.2334467011167,0.6151,0.8047
-391.998773740929,-16.902406484956373,-960.5624043927996,0.4009,0.6095
-927.6113884211168,-894.1362974676548,-624.752818115825,0.1733,0.87
-914.2554005691153,625.610708075403,-375.6730710681071,0.3246,0.2159
298.8242556577859,-605.0898033939327,486.6228195268677,0.5196,0.2717
-570.2813885163339,913.4952310112405,-57.665972110283406,0.3774,0.9305
-577.3128854712539,-274.8880689068718,-440.18487006188866,0.5518,0.8116
-239.63411806725412,-554.080357465339,159.90779912961102,0.6394,0.8619
-346.69745642133205,684.3447573635358,-74.89382086277453,0.555,0.3095
941.6554162300715,-898.6394428522018,244.05514236458612,0.2354,0.1267
-197.803546257956,706.9393031133925,808.4029485976769,0.3695,0.7344
-245.15969718825727,802.04256520278,821.2298170630659,0.3223,0.1382
79.68455211486798,983.1724009158004,-907.2459647386677,0.2262,0.4837
608.2437535486874,-110.81281762107517,977.5873031450733,0.3322,0.2879
-697.4540236728512,730.9711410511404,678.6393459145045,0.2973,0.7693
-357.66334013542496,-965.6116785484526,-311.89287357570765,0.3788,0.5522
300.6759053679532,79.63288127408737,-432.6640655137069,0.6923,0.5858
-829.1560502256718,-449.641147247909,650.054312773889,0.3386,0.3349
163.88458266087514,-448.5290815915057,-923.6919991502459,0.3997,0.6139
-740.0900928259391,371.16508571405643,121.60871464976685,0.5169,0.3275
309.3864131962971,185.39794367877585,-41.994123749044206,0.7904,0.9593
274.26338586691486,84.86410143031048,-378.724212412465,0.7256,0.7315
-266.7400671494278,-949.789322314299,-264.0779872389045,0.4104,0.7544
-65.34089082608932,508.9997148793823,-377.1033087365396,0.6323,0.5278
-237.1908249663246,-437.75829218178023,591.7422572821192,0.5535,0.6868
-292.604957389025,975.3468412399166,958.206814778214,0.1927,0.6057
755.7318882456361,615.1623535381468,-77.03168508088186,0.4356,0.9811
830.9786694531406,-127.74448827115782,-995.6850501959957,0.2476,0.6041
164.66212143615053,-500.23649501515143,807.3053343988424,0.4435,0.5698
30.872154342436488,-411.00198779015227,891.652664569043,0.4329,0.8324
862.2885876801922,-561.3943014383174,96.2507701060531,0.4034,0.3553
-850.1416616511526,-651.2323419558577,749.3671201481998,0.2454,0.2488
-887.6434569447717,-868.2115325536697,224.92519577667713,0.2715,0.8245
-565.9788474054801,176.3560141365142,-306.28637386713467,0.6148,0.126
-235.47737742092716,585.3660938046883,-883.0482492102749,0.3734,0.6799
752.6446010557963,138.98504664156553,-659.4351409805826,0.4167,0.233
-649.2388914562397,-44.076640005241075,233.72208031242553,0.6008,0.7608
-145.69286729119278,-212.47399961081112,621.0273499194493,0.6118,0.9663
-857.0815735569945,-751.1905528357521,-368.3111187581609,0.3085,0.5647
-493.9476821963187,-921.4246773431063,965.3647351288798,0.1784,0.784
-291.2278480372996,718.0708881645837,-998.488935080533,0.2703,0.4161
272.3776793385812,-825.0708522371792,795.6808522446859,0.3198,0.5677
-613.8904628448436,716.9706711345882,-189.7544924947905,0.4441,0.9266
-873.0686579993801,702.6695669232704,656.3121280054636,0.2502,0.9967
135.34938257958675,305.31437755641196,238.4635087317106,0.7631,0.9531
281.4381378373221,-282.5442027657217,452.6852897065037,0.6517,0.8223
-974.7201102832435,-832.4261928089231,41.207395402182556,0.2596,0.8585
365.6718123936116,-645.5109397233172,-53.93340234673258,0.5705,0.7025
-322.80199490258246,422.6455806988504,826.5121064679081,0.4326,0.215
405.75516241964056,488.5495192321084,15.107233978363979,0.6332,0.5395
-257.2644223201497,583.313254800963,-431.2061066175386,0.5556,0.4885
170.17357497107423,245.49268296413356,591.9318017631722,0.6172,0.397
-400.9199325979895,293.5993563507973,128.70035198099504,0.7036,0.9171
-482.9521779169115,-903.7570504080905,911.7158197654617,0.2081,0.223
-49.18419259846621,-624.2563049409151,-344.05229768655965,0.5875,0.2399
363.6206773754011,-978.6076228919541,113.90448095471402,0.3937,0.2312
-28.205844525650605,-949.6024456430789,680.8120802439039,0.3252,0.3052
189.36878792632206,-772.9811541485608,-390.2617254749756,0.4882,0.7456
34.922961107799665,-931.346230898725,811.3892084562344,0.2866,0.6184
3.213560234123179,382.931128690102,199.7218273759106,0.7506,0.7223
-805.3260642809115,530.2505063264762,-376.5878696777387,0.4024,0.5323
697.8532727124623,-740.4294443196225,208.64608922087245,0.4003,0.3821
87.51961521964631,-678.0494459308328,603.6163586186678,0.4735,0.8779
-754.5718221955733,-364.91211858452857,-381.351214713614,0.4683,0.2598
-922.8709510877206,561.7005817725683,-856.5438796089422,0.204,0.4246
673.0226456694872,44.34041105773008,588.0245145174024,0.4834,0.415
589.7914540836721,-510.9746450526149,-807.5164230408791,0.3517,0.774
355.65612054807616,207.5730699512519,790.971926258168,0.4851,0.7822
328.4950315470928,447.32966675893954,-0.08349605778539626,0.6796,0.9516
-157.6232027710978,-478.5128043315178,825.092355754768,0.4418,0.5017
-468.3198460081121,743.033806074435,-462.5448339909872,0.4269,0.992
-331.5091628699985,101.0643737475466,-538.0468771799488,0.6305,0.6929
405.7848980553515,665.4733222350924,34.65082406932902,0.5495,0.5989
-765.9744919932593,669.0549880370597,-374.4226140438782,0.3743,0.7614
618.193433281609,671.1253817218858,-252.36485482851515,0.4534,0.7398
-442.60495647952644,146.27944633327866,897.3664425187687,0.4162,0.1296
987.5904837459045,814.258242922032,285.8288074422185,0.2428,0.4432
882.9107879027918,834.2224307999634,-613.8798525091645,0.2142,0.2301
332.8844399562779,-288.2531459601356,981.9757527181082,0.3787,0.1656
-147.84274757211426,-281.6082910773423,-636.4859507245997,0.5892,0.3136
408.05807292151235,-726.9624754523979,591.6552473487327,0.4098,0.389
33.27051307401689,783.394364128206,978.7919679301863,0.2759,0.5849
-690.5710076880254,160.591304247449,431.73304424690355,0.5207,0.5916
762.6691805747039,-661.4268520256405,-121.97743142557488,0.4129,0.3073
874.4617303808843,130.7459112719871,-774.7322697783532,0.3213,0.5925
219.9662314948191,635.4320829484648,911.3741797898522,0.3461,0.5361
548.2894344651506,774.2290585775518,281.54929311806836,0.4287,0.9247
-188.4299668662286,-157.81380340932174,-593.1734113344394,0.6293,0.6677
-427.5302531601109,-255.4432885051383,746.5292280459687,0.4819,0.809
-930.9440297719618,-931.7386267585401,484.69957780477876,0.1897,0.8094
690.3069750303816,-547.8307016221113,-860.7323834704605,0.2888,0.4831
218.5117968326174,455.6582172309718,740.6161423910792,0.4824,0.1821
605.1540292043326,100.79418016121008,-892.5048319371278,0.3747,0.5553
508.31728457794225,904.0308895770816,369.1608549600678,0.3644,0.4138
-145.58724289759812,530.6437362484514,-826.660480540756,0.4267,0.5171
-145.06477316770372,-202.35554737261953,392.4257990410506,0.7317,0.8465
158.05710889184115,922.9415641179012,-75.81777507911022,0.4576,0.1795
-718.02295048221,-555.2021420752591,-360.4042514344934,0.4362,0.9595
-525.8258713115183,-159.31681990438528,-876.4688573896983,0.4028,0.2825
744.1461297709623,885.9810337323331,-482.9125854587877,0.2761,0.8164
-585.329753722609,457.75088738484556,305.2210640001292,0.5362,0.7961
876.319387261263,663.8693581923501,355.7031577791472,0.3329,0.5464
816.5300875049059,-433.8713185297047,102.86563847079697,0.4629,0.728
829.2814351172706,99.6650202781932,-19.29751162051275,0.5176,0.8175
543.6435885130009,-227.34375990703404,-101.30341849970637,0.6548,0.8266
530.1915759241181,608.769038552613,246.54853192836572,0.5127,0.6232
507.2483682624593,-655.0975974676571,758.2411115084878,0.3516,0.861
500.54206697064,-736.1671502486447,-937.9778529017219,0.2534,0.6826
-628.0330266498008,-982.4009787662018,73.08496878371466,0.3255,0.504
-315.6897709437143,698.4616402959566,-31.07374721383337,0.5571,0.4513
-79.42050249234353,824.3131949381041,-227.6114277311159,0.5041,0.1958
351.3714674808725,-405.50261868596783,301.75178312932235,0.6446,0.9868
-162.96308976395244,439.64511420694953,-936.9484121389162,0.3951,0.9065
290.95229362164037,188.72508824226543,-713.9593191389946,0.5417,0.312
188.65882221959237,-657.4060353755547,779.7549279344164,0.4012,0.5388
-148.63213005343584,-595.0217880794751,-172.90595103193857,0.6321,0.8353
305.5529902066062,979.1675957308144,-37.77882217391834,0.4074,0.9114
-139.30282064931055,-669.0263307711023,-597.5109253482591,0.4759,0.1583
-933.7252741014102,-280.20221038742557,-699.6268717560041,0.3072,0.8058
-498.0165151048712,77.52910944988525,-864.0008682753933,0.4225,0.3636
580.9893569300125,-728.2177948943406,115.26897775423026,0.458,0.8856
929.1375150269562,-787.4288904343239,-185.3773498009508,0.2887,0.731
589.701550178173,-352.87882793004144,745.1037586845794,0.4148,0.9516
429.175177954143,-429.44731146940353,-292.2928161900811,0.611,0.4181
321.93815660743167,760.4274319528663,-33.35075599698632,0.5229,0.6943
744.2764268667222,-273.2026617395222,499.7744682248317,0.4589,0.1526
302.7027040076341,332.95716397530646,797.6737864415225,0.4712,0.3433
-801.5761376238672,-875.5940527786419,-422.8932610295544,0.2724,0.3274
-933.8435083656365,620.6575223535422,-166.99309598662524,0.3455,0.132
-26.902360748125602,-718.3428666470537,-384.4268351050566,0.5294,0.4018
-703.077537041892,893.0267429940964,-936.6300041535574,0.1497,0.5901
499.7268429939977,-676.6914698568471,-666.1678910429771,0.3805,0.2305
-908.4229014619989,734.3511217600515,-675.7637244029765,0.2209,0.3819
578.656896935099,113.73285166836285,-363.07942466416625,0.6002,0.3148
-654.3214995664348,-735.3599802150013,-199.42750606973948,0.4202,0.2143
963.3906999571327,-814.1933130079475,8.01862037836429,0.2717,0.8497
530.6061903514119,-176.10479013482893,56.07253703542847,0.6756,0.7998
-43.06466589904994,-953.18761137546,-640.2501407966006,0.3366,0.6116
960.1539973560934,-696.7825176325133,905.2042117350936,0.1385,0.2235
-907.3406447454828,336.1450689791279,-549.1879387337515,0.3576,0.2714
392.0857836469013,-720.6208330079971,541.9376849430337,0.4323,0.7733
-58.93854078658899,495.77092475683,-204.46541034520772,0.6885,0.4938
-193.20110386885187,-689.5820000763431,-961.6374964480879,0.3078,0.633
678.577823847872,-158.17236340962768,-804.678421336441,0.3855,0.4026
-758.864997704354,987.3571467931349,918.2623547373939,0.1067,0.2056
729.5151077385754,-376.316588134104,851.9908953747051,0.3169,0.43
-206.86721043687828,978.5276038901677,945.3938802072967,0.2054,0.8593
-588.8793024448051,-831.646248984908,-318.8851013445395,0.3835,0.6561
945.7162540089946,-367.8378771139801,196.47334876047057,0.4033,0.1094
-100.67926135655921,61.27940607422079,-845.0004497703012,0.5074,0.5076
-523.46300666247,253.31836930718464,-267.1222902011041,0.6305,0.2957
-27.26213717081123,-153.3158346493309,983.7488331140878,0.425,0.1684
-546.2308632560182,922.03152099042,-816.6168610828936,0.2221,0.5677
754.5807922187566,365.7410144944283,-997.1041842722144,0.2478,0.5313
-6.8109339920010825,180.91045186130782,-699.131982279277,0.583,0.5087
-271.1276492347549,-474.0616787355725,861.3850061717831,0.4112,0.5166
994.2070491782695,92.02841994850951,216.0917592557803,0.4102,0.3318
471.52685257958774,604.9077126254156,521.8505042642776,0.4644,0.3515
627.6153321175889,-94.70653557268861,400.93594411024515,0.5666,0.2198
-342.40958266387645,890.1242070669239,-67.04518237244588,0.448,0.7646
-515.801146863414,696.6563290591878,-684.5049885380733,0.3623,0.7425
-849.1956368747055,845.9841622983074,255.5534153344397,0.2924,0.9888
-649.3606529729769,262.17654989866196,-905.6775305298581,0.339,0.4683
-550.3629823244522,-574.7403988868116,-406.5435240281638,0.4841,0.6462
714.101826124871,359.0412860048159,-480.36255578554756,0.4616,0.79
-238.93926692571506,658.9388737358129,327.12933687499776,0.5534,0.2273
259.9272952367505,-883.0738393038932,-131.96705764898843,0.4631,0.7861
-510.0140966479647,415.82216897014587,523.1479057439619,0.5146,0.2509
698.5334276908472,-443.877121817486,787.9893307961834,0.3402,0.795
840.715697439846,354.9263210907877,-77.3991083578536,0.4712,0.4614
366.89313289997904,634.7876194075752,221.40886508775043,0.5578,0.1857
-509.315629416357,496.04397205022565,842.621373091984,0.3635,0.8516
-658.6964116864775,938.1428287475392,-182.06118793428857,0.3299,0.4872
-114.11524317704664,-764.2851266953128,-543.3507656906849,0.4546,0.8377
14.496958195905108,614.5305258298613,-80.41642387031175,0.6421,0.8015
243.70774218897827,-208.0612978531908,250.13665250933377,0.7653,0.7994
-79.88390514415914,896.7857876654607,-633.1983127706465,0.3645,0.2521
735.9893554880991,-807.2429286439751,95.24031763468338,0.3669,0.7509
675.3779344215268,812.3645056789533,-92.26077524161246,0.3877,0.1352
258.2101141628832,-426.87036290898584,-938.5407223775244,0.3863,0.4048
-361.44402291317147,384.5087447229098,442.3933363886126,0.6024,0.461
604.1882468690717,-166.34263452893094,-568.9437124012733,0.5113,0.1727
-124.86095498507348,-341.23560438828565,289.23298165906,0.7319,0.2509
-160.2914259328487,910.1998342486386,-729.4482569056322,0.3202,0.6546
104.82878105751001,-657.6093794889341,66.79502338108136,0.6136,0.7448
629.4763303000811,-664.7051066985935,49.3071180098118,0.4707,0.1751
-589.3647823028361,-875.3426079451647,186.16225299202642,0.3813,0.7288
556.9161367703662,-616.1080922537068,-885.4954377949524,0.2991,0.6049
-518.9084273214204,996.9061271665139,690.4450796546564,0.2385,0.7435
-968.9638349221033,219.89211910352674,-337.5777370644355,0.3941,0.7526
-4.246406401525064,188.03280966568354,-595.0161540832642,0.6397,0.7805
-811.7809327959073,114.1045085596918,-68.21772593513356,0.5251,0.7738
-206.10269099195386,603.5277939022792,317.61096248681633,0.5887,0.243
292.24474115860266,203.65951550277623,150.11648348888934,0.7768,0.2162
540.9939978023992,-573.6708759257621,662.7198328187549,0.4053,0.5599
858.9923857754757,834.2153845849191,-143.948004818595,0.3037,0.726
-923.0300098177818,641.8922817148177,-37.67902645392621,0.3505,0.4928
-41.758609740006705,-878.6778120565526,87.789574963218,0.4896,0.8291
-602.3391808156566,91.2081451193792,-753.3494242058428,0.4406,0.9193
-466.2213030621491,375.56501261708104,287.61860490525737,0.6165,0.4879
905.4001373787289,483.551680519163,-775.7283814877429,0.2572,0.33
-462.9639876130807,-692.086897686172,-588.2114386282644,0.4114,0.6991
91.12197073026846,872.967453673502,-895.1036914665278,0.2762,0.7982
151.24402512754045,419.1109409361768,-870.0286576822882,0.4356,0.3862
-73.33533098510986,993.1948166366119,619.6396357406807,0.3228,0.4761
-120.80339221068743,-848.022499462868,-779.4977937548231,0.3313,0.7799
212.22714565528167,-562.1540495087673,-566.1538639854913,0.5233,0.1125
764.6576839067864,203.69421885161137,343.26209723033753,0.502,0.8102
638.3880191773997,-378.56427105013177,991.1550974505194,0.2851,0.5941
375.5330783557772,122.01397636739694,-438.9908464025534,0.6591,0.8829
-445.5829182895219,-359.85960121947085,-673.8265297209502,0.4894,0.7701
967.1688856119522,502.24098460206346,639.7727553156126,0.2704,0.6597
-580.3532384680534,-821.4853562067203,952.5662751278746,0.2002,0.671
511.27632713708226,-66.65858033337884,-619.9481883968381,0.5345,0.6815
91.24016906223346,336.16898256910576,901.7958303843798,0.4419,0.7963
-233.03503460720253,-599.8410082634805,698.7124248699029,0.4516,0.9747
-618.7933089526834,369.6078636505856,889.4003783438804,0.3391,0.5429
223.84344388058685,-278.3861766734668,436.63200216215955,0.6743,0.3351
182.15160651175643,225.6023284359344,699.5092695549051,0.5628,0.1403
-351.49673176774354,-116.90098909739356,-81.8102299101107,0.781,0.2011
-247.02922427416433,-536.1762618739631,49.126047421541216,0.658,0.9962
324.9528716651316,-478.84423941252385,-223.17814250073866,0.6419,0.5182
695.1691692904683,-843.6333280876156,-163.1986448248383,0.3619,0.9291
-97.96473619519656,302.4478935179634,447.72879055981525,0.683,0.8338
884.9990839225925,-3.6174329235407185,-315.3788631277432,0.4576,0.5257
-810.6135163873221,675.65682550977,-616.4518291770336,0.2944,0.3549
777.2192915834507,308.34430050166293,-195.67073490610085,0.5042,0.5021
-466.04432641626454,-139.72272410985863,-510.4506580667927,0.5929,0.1223
480.1686348837534,-669.2648307445088,-723.62410241353,0.367,0.3755
303.74772080985144,-325.14305393602876,16.501880038145828,0.7429,0.9657
234.80161625559754,-402.7942609542232,-790.1878319078008,0.4703,0.72
-411.4148431173155,-354.48879521891354,338.26775109192045,0.6306,0.8032
-471.561118060888,348.92383980000545,374.9280699840924,0.5981,0.1947
-222.87918383646627,107.97891603662697,865.9852939950595,0.48,0.5999
236.93620325238862,644.5850651312587,297.0296788612268,0.568,0.8233
-575.1205551677663,-358.9249807643715,514.5263972018065,0.5086,0.5101
-285.4459405691183,26.812634363687266,620.8887443248684,0.6052,0.8451
-216.60984274810005,-845.8969535971355,611.648038959002,0.3845,0.728
346.01289510250285,669.5474266965603,-117.65270579454136,0.5596,0.7677
474.54167064747026,181.13728871058515,756.7297450703429,0.4738,0.9474
819.1303836172735,206.84558904212622,729.0138232614736,0.3557,0.3928
-685.7485915614445,410.53926937643405,77.51988524852095,0.5364,0.1855
-165.52667084339248,-997.4321947439728,391.62688959976276,0.374,0.3782
968.742861354352,489.64709368984995,-301.33965806947276,0.3496,0.7882
925.8296089045132,95.14080650611572,-954.5208805022445,0.2303,0.8781
214.6136249516478,891.9976337568917,65.40060086676749,0.469,0.8122
-408.9648053409462,-446.57091446130926,33.87611482715192,0.6498,0.779
440.40695377033967,-710.9486061613151,770.4650320087605,0.3435,0.2537
857.9575565632595,-452.62501910557626,595.4499247950989,0.3429,0.2397
874.7375549713308,-931.2414650864251,-161.81428009924707,0.2565,0.966
271.1543779872793,635.6838084296592,852.284042364533,0.3665,0.4212
-225.1606136762614,-825.9869426248312,897.1541266308379,0.284,0.7507
-57.03741644045169,-221.58046034973916,900.3395312871264,0.4637,0.2421
503.52734294343395,368.14262984223933,467.47770368171336,0.55,0.9346
270.88743651961863,581.1295361866664,-585.6054727202234,0.4987,0.8089
125.7909554326568,389.6436226483379,-502.17614113180554,0.6259,0.6137
-956.8665279143214,-760.058863674486,897.0154343468173,0.1248,0.9107
-928.9186847290072,-861.7725447871685,-343.60974830071257,0.242,0.7919
527.8001908725241,74.62078847383964,308.89708881633305,0.6443,0.6546
779.4029315602486,602.9943550997002,754.4552884712923,0.2835,0.285
-447.44251925499316,372.65572933055705,-293.8528674099381,0.6234,0.6189
147.9363016747825,-565.3626466541161,-274.76675327602004,0.6272,0.6335
-636.9336851617156,-411.07456062714357,289.3497990290589,0.5315,0.9113
-204.5529672259479,-117.83397687260151,-712.8272315681663,0.5665,0.699
996.7366839282286,111.56133611801874,-200.50123955068716,0.4095,0.9575
-952.3956563178976,941.0594348645659,841.6507709664252,0.0869,0.573
837.5702694505003,84.49827815723324,-947.4043196986679,0.2683,0.2153
329.48276873777036,413.2921965970354,838.5648237398516,0.4277,0.4511
788.7501781064154,-296.77345829421427,914.3080401990851,0.2821,0.99
-418.75245687959466,993.0082387090056,-35.57652035539036,0.3775,0.939
-616.9116513710487,88.29047006283395,-768.7248332003692,0.4287,0.8322
127.08048277066678,-308.1312375592238,299.1031720781548,0.7414,0.7693
713.3975156933352,-682.3426967083601,137.11188615107267,0.4246,0.976
-710.8349240357938,185.3748591003,398.01265769458473,0.5176,0.7779
-701.1119657465024,-168.0362919664433,231.6345109533097,0.5628,0.5841
-414.8177787124225,426.46153954757915,757.8754536174199,0.4437,0.7581
364.80300256497753,-890.948421904439,896.9852581890984,0.2403,0.2393
-808.9869816393409,-373.0561053158606,236.9264199388274,0.4678,0.6493
-863.8000131121033,-356.2798369028968,438.42009782353466,0.4041,0.5319
-885.0564856762286,-730.2089138758696,-420.50081557255135,0.2945,0.249
767.9227793092837,890.435367579767,595.4781709671827,0.239,0.3213
-589.9578593394541,740.3516055146531,775.1607859456606,0.2936,0.553
-780.0137373974485,865.6151610811323,673.8467368781548,0.2229,0.9388
-247.26058848439231,-582.1375524229893,983.5949772797082,0.3249,0.8034
426.2375525198172,-558.3958251468187,-862.4398652199714,0.3578,0.5073
675.7291218904629,-486.205078604091,811.1120764868767,0.329,0.8778
878.1348895296451,-560.0314368411052,825.1189090131372,0.2328,0.476
690.6296091659565,947.2064595840322,-596.8993087016323,0.2405,0.2633
-272.6441512394489,135.93438374550055,34.743488766258906,0.823,0.6194
-498.3516612061949,129.64393111256777,392.87963182277394,0.626,0.445
924.822568597305,-925.8615387529608,281.9987679314379,0.2271,0.494
886.1709139108168,-474.9090364000956,410.1763521712239,0.3731,0.5113
3.8525489709253407,604.549337055053,23.734018338495275,0.6507,0.2188
445.69835152377686,401.310740480975,64.35726039867677,0.6517,0.2546
-512.026739311463,-609.4641571038297,459.2483365577857,0.4694,0.2396
-639.3661507135984,-615.5817978060827,493.40559839952334,0.4137,0.6194
137.6683163052694,768.4797686334593,-331.16008753076096,0.5104,0.8836
318.131920435349,280.3305150695703,-626.1086850158499,0.5634,0.2689
958.3975908394609,-204.86305512598426,-14.159431412577305,0.4341,0.4102
573.9184326758991,601.3761574975376,-873.3485776465897,0.3039,0.8193
923.9108099306143,807.4635127476561,121.29670616631142,0.2881,0.5142
425.260734497783,872.9488572591126,131.7328920020184,0.4342,0.8923
749.9082231318578,-387.2378140603221,801.7558068004817,0.3279,0.5775
616.0979094166019,-537.7956302664566,595.0262574267181,0.4161,0.776
932.0223215917927,-661.9456747966349,441.01782650774476,0.2926,0.1099
-542.3899623594748,-914.2248703424116,-549.6903900597965,0.3091,0.4384
-136.59148858532785,-283.2874980221585,-757.7505062675596,0.5263,0.6365
331.5677553909936,-187.90281269593277,615.8087487525838,0.5819,0.1165
-344.30205804374464,-178.9793955286765,-307.73994509922863,0.7141,0.5112
312.1893843362093,-98.92021878401863,-387.2207455843675,0.7072,0.9436
-662.0406259171006,285.86736651668866,666.8184791844305,0.4329,0.3387
-733.5629362824739,-937.1077024491565,-622.1277282082838,0.2247,0.4985
297.45577736792075,-549.8179172987082,-142.09338000498258,0.6299,0.9817
-217.02806313303927,-481.64467868945064,799.9989740996532,0.4465,0.9036
277.6654803559243,-863.6897315925949,8.995258763343259,0.4762,0.6703
-459.8875353851331,-249.94892967358794,-522.3024494323993,0.5731,0.6901
418.25645152539164,-927.1934618557083,-607.3512078347937,0.316,0.1276
-179.33238853752243,-776.5387625079037,-246.6042343534782,0.5183,0.3982
-378.188675313992,-713.4137631792032,248.23107717733,0.5123,0.1403
-303.6260342702901,875.5768849548158,578.8288602085363,0.3692,0.5175
-927.6597454844529,-492.5055646567424,-600.8721407009939,0.3014,0.734
-694.4890431943352,-169.0124594038267,602.6378720750347,0.4602,0.4162
-326.5866614788173,115.80848565509086,439.208480410495,0.677,0.2709
530.290806709271,-100.1024198565625,-81.50813004980569,0.6849,0.8237
564.8679337800525,-657.9749787090464,968.94440165015,0.2493,0.5574
-616.6558883929563,221.68553733868498,-488.2041140034266,0.5282,0.8991
224.36326197445464,-188.52912435061683,-568.0930253434135,0.6309,0.1912
-444.0489471510631,996.3822810268694,49.866828610812945,0.3695,0.8055
520.1060328536507,321.1156175849467,573.1767791535428,0.5162,0.6016
-667.6429124854624,122.60688715834135,629.3377598703332,0.4656,0.6939
121.57632906064941,817.0019196136966,-447.0214120314117,0.4578,0.4798
-936.4684418590317,-745.1733257990016,304.95692260418105,0.287,0.2809
459.61962692606016,242.68079948551576,-744.8057681855731,0.4756,0.6546
-800.7928346987808,-862.1572225773419,-949.9579639379167,0.1269,0.2608
620.3752796661317,715.6702562043122,100.98541685213581,0.4501,0.7172
-604.5322419737722,420.20269545516385,-180.3127077049695,0.5624,0.2539
-183.1044538206952,308.0628777119416,749.0907045374292,0.5206,0.2517
-799.8051383583802,-250.51383964305217,748.4942036662333,0.3512,0.17
-232.62929732117482,-35.055204291600376,887.9120380560016,0.4697,0.8482
581.0404514074148,786.4522032901666,-409.088040037838,0.388,0.9966
-903.0505260123447,979.0961004771018,-286.60768313355095,0.2134,0.1381
-966.6069201812973,507.344589057667,651.7897848791047,0.2659,0.779
-463.86256754993747,480.24042148847707,374.84727829684243,0.5579,0.378
-598.979821046719,415.34470183390863,587.8654474067173,0.4594,0.8086
-914.7830623199318,28.74992095475295,423.1824004040261,0.4178,0.9821
784.6394399570572,-844.7894406906227,75.29379744180687,0.3329,0.1868
-436.66499878943955,-54.478744104822226,-98.26607256357329,0.7397,0.5884
538.6206393489645,-690.2800306833985,-370.5027666844645,0.4511,0.1194
-216.526578368508,788.4652332801979,-458.8678028713964,0.4587,0.1295
418.7898140513644,68.70011188344051,-949.4138656487283,0.3996,0.1699
83.60574770774952,-784.3636538224596,359.9319530612338,0.4994,0.5395
-579.6932688432714,806.7036706892081,-568.6148054376167,0.3392,0.9542
280.140157696434,-791.1080489223947,645.4231787322087,0.3887,0.8137
534.1941026737491,859.8192595114715,199.1146876375933,0.4044,0.2048
959.3473654307568,-135.34564503978902,-279.17571501195846,0.4179,0.7497
642.9239613462887,585.8468713806922,-585.2222779243243,0.3947,0.8116
-776.0064600045666,740.3573144728778,-295.4762454671014,0.3577,0.6923
77.20650347512492,-87.10597384230721,423.1163705217316,0.7466,0.6418
862.819687404658,-296.0180291659158,-781.6369246513692,0.3064,0.981
-443.98871706468617,-311.9683383153023,-63.771779160831215,0.6846,0.9362
-674.7269106575377,-519.0438035815878,836.9948665922338,0.3107,0.9776
304.65088325380907,242.42764909105904,-151.07100858676552,0.7589,0.823
171.01869187413376,-219.09141244886428,313.17961733337347,0.7582,0.4019
410.31824294930107,-898.6052504501232,-215.60860856637396,0.4162,0.9135
-147.96190314834814,-954.9964272139835,-278.70363046718126,0.4193,0.7366
-591.910732891097,754.847913653965,-5.780788961576604,0.4462,0.6729
-28.017753150585236,133.19763108987968,929.8041319385525,0.4575,0.4677
370.09925545490705,94.93672247839982,936.3323136394313,0.4161,0.5828
-862.9711460129923,-288.8031478938251,-243.85742939524073,0.4561,0.7882
615.2180030025129,64.1829046510286,-635.0826151211686,0.4882,0.2765
371.79938580473095,725.9145648512144,-338.83916023517236,0.4901,0.1165
249.95680283407978,-453.9003906242458,-580.1190297564118,0.5509,0.2658
736.0598660716416,504.7145577123315,95.90635798759786,0.4818,0.1837
-162.31169318983825,900.4505378332626,840.5667444253306,0.2827,0.177
327.02879121024307,-808.4475242501708,-375.65558563313186,0.4518,0.7551
176.44913028754422,-778.7038874124528,881.3040333509598,0.3134,0.2524
-238.14841669945918,-761.0126371037744,-256.8400092173822,0.5163,0.7033
823.0991746735203,950.1431303278107,-332.5684560719633,0.2493,0.3818
505.83426347674526,490.480522225429,791.4460909033785,0.3882,0.4619
944.7709787970325,584.7419599137779,-57.67001856172999,0.3576,0.2826
203.61601105403997,-215.50604104234992,418.60752700014723,0.7038,0.5536
-491.92802576110586,-119.18742893364094,-163.8028309662036,0.6928,0.789
502.56064285513276,-599.7971253192171,-858.5075672262133,0.3293,0.1463
-715.3773820543124,727.214782529365,-511.104637009854,0.3413,0.8081
675.5982536676954,555.2501269220816,-175.03269524467146,0.4851,0.7505
-730.0720560860889,-90.68348018452616,795.1451635503488,0.3746,0.7835
-500.46194632249575,-731.9805198669626,-668.4830504099907,0.3589,0.291
377.1982728164037,-552.4718589123638,584.9454104895287,0.4869,0.9992
-176.62067588181765,839.5116894029986,-176.6975319007438,0.4943,0.441
147.5575900083311,231.74348508859543,-505.33489079879,0.6679,0.1612
626.7921148068735,327.11957214712425,-262.91720189636635,0.5645,0.4324
-351.847231605787,817.4084705512716,-353.06398270418924,0.4472,0.6821
977.556727736182,144.12958522461577,-192.002130439967,0.4188,0.646
238.58459991383666,-684.9281525877442,-223.1798124782547,0.5619,0.5859
4.4664238157017735,501.5613467355113,-497.37657843152317,0.5922,0.646
-398.5534082397844,-666.1129384814983,-42.38681646304792,0.5512,0.7384
-972.4839340056459,-154.64027227820077,687.6212951794882,0.3066,0.2142
-643.8430372023538,-819.6093064835011,-118.5886495905379,0.3944,0.9502
-307.06316501421793,-346.27344517599363,-641.918205228026,0.5431,0.7389
490.40451491186104,355.0596508709898,-572.03363135375,0.5191,0.7288
959.3081343215672,712.4615513201077,-727.007780811959,0.1924,0.8898
192.4576216487908,-885.0474459289275,329.59105143656257,0.4435,0.8389
528.7346677638052,969.6310438414118,-413.0468389510306,0.3192,0.6206
763.0070544815501,318.6074865833889,35.15516694378948,0.5222,0.8987
-157.9162026615544,415.8697009669236,208.00562438793827,0.7165,0.3462
313.6301330727156,-614.8381239953897,549.5284796853241,0.4906,0.8099
818.4515421940555,-387.91524718267146,168.98081720211462,0.4681,0.1775
976.5957597923036,-448.26739133037677,-832.6746319261044,0.2151,0.3055
188.78515355833247,-879.4665278065945,-545.020873271754,0.3928,0.2253
194.40080439962662,259.63759844034985,-513.3199150886007,0.6494,0.2256
-187.97304769226434,157.56688333732313,-444.1751933168372,0.7071,0.8774
-866.7325331778507,-729.2511425608419,141.75536070095927,0.3409,0.4623
-391.4250591298023,661.8994661668528,-778.1475885099511,0.3684,0.7064
805.1865079555078,834.1467384897987,171.42847514628716,0.3234,0.1573
739.2775623901716,982.3555762871777,775.2783013648939,0.1608,0.3189
-28.35847271842033,-909.0144625765378,-920.8365567845347,0.2528,0.934
581.1642374624166,-22.883749581917186,-221.1756003292818,0.6407,0.5817
-439.0704237370635,590.8471861940845,-120.07507544284351,0.5694,0.7321
186.3442173346425,-717.6823058805484,-132.62942123434686,0.5651,0.8086
-664.0178084789763,388.08765520152406,780.8208446360406,0.3672,0.4292
-277.96404660441794,185.4519095094663,-279.9935794186248,0.7483,0.9249
733.3472046640697,599.0576825616545,-695.486515278852,0.3217,0.2124
444.0415715460201,510.3287056905124,-642.4214698664834,0.4614,0.3389
899.3928821346619,889.6068772946717,772.5655670003325,0.1442,0.1138
211.6473656404571,230.99414424105612,-639.5396494846748,0.5888,0.1236
-748.5321703135188,-342.3442025642811,-228.12475425712876,0.5069,0.5052
