X,Y,Z,Normalized Luminosity,Normalized Radius
-600.3753665549491,-560.5490880784826,420.81826533971343,0.4672,0.9025
609.3454957170561,-992.6687569837229,830.4005567767999,0.1741,0.1309
-385.4381668313081,401.12575216643495,-335.59224564785245,0.6249,0.9085
-535.6937625808423,-209.00867229776395,446.0971754802483,0.5798,0.9054
-600.2920868067414,521.5211771737534,-20.216399807769108,0.5407,0.6309
88.02753378794705,-632.9544936430605,249.02823250322353,0.604,0.7266
509.63729924527775,-131.44606922206356,-560.3279657635085,0.5562,0.4687
-466.8432105142617,-569.5339901761498,890.6377590953903,0.3328,0.669
360.7463515956226,59.312602532812434,-729.831738900615,0.5287,0.4355
-176.7918452656976,-662.1939119405207,-417.9094415126317,0.5365,0.5944
660.8562124373957,-13.124031552272527,605.4544316616971,0.4825,0.8
-707.3176323726154,892.3303821719296,-895.8874466707376,0.1635,0.7539
932.7503163486435,-655.4093472398083,528.8733595503516,0.2744,0.95
-815.4940300804788,609.4924414725097,-300.0364296674172,0.3872,0.4373
452.8233742324012,178.67891527524262,175.58911894669268,0.7012,0.1204
-597.7475781236017,-836.6640156888793,-896.3733030006694,0.2124,0.6833
805.1543230202349,-986.4676792290676,-479.20556438063613,0.2145,0.43
22.018225822774525,-838.5182016146862,351.3853221064778,0.4749,0.8372
-151.60499370598552,449.94156779603895,-665.7433406207444,0.5279,0.822
-72.0640456368784,756.4200684254834,993.9747859341601,0.2777,0.8621
-352.5746898598718,-448.0245992080851,246.12117707977654,0.6415,0.1344
357.4566741677256,-34.98007002977158,345.47960326374937,0.7123,0.3655
299.08808894408,410.25850898475824,246.7169232897213,0.6741,0.1154
-613.4324594698085,-46.42848000997594,261.81550589485596,0.614,0.9574
261.6635297233763,-880.3570040632296,725.042841360189,0.3244,0.6877
912.5859081836998,620.7827633960771,-903.0797600849617,0.1766,0.7742
332.23853967347077,104.23712714493081,-800.1556390688669,0.4962,0.8891
-650.4723404263282,855.4294778124126,-815.7727783965394,0.221,0.3492
-923.4394538365842,-966.2356358344164,343.8327828480119,0.2032,0.1514
118.5470260864729,434.2056802609575,-409.51783833477157,0.6487,0.5989
-449.83697329057736,603.6283809605225,935.634981478242,0.3067,0.7395
-845.391803042886,994.0665700812774,-36.8650280458171,0.2463,0.719
-216.46117187671643,-937.3625106065056,196.57544884482172,0.4331,0.122
664.3560623013573,282.63915612323945,356.07163237733585,0.5352,0.8895
-262.807092629364,-290.7173288963587,981.8100450457898,0.3897,0.4509
-533.9793145926561,977.0321635362693,-383.987670667741,0.32,0.134
804.5349149906335,-187.56370986780155,-319.8249746056488,0.4885,0.7222
-587.2751797346975,339.52813322798875,-339.4541340115818,0.5621,0.1428
-722.2295832154261,903.0212323160877,513.7912810842947,0.2695,0.3472
-501.8785376071242,572.9217991692001,567.3001092819927,0.4517,0.3705
660.4025567660722,-54.6089066216673,-271.85154119714787,0.5865,0.1692
956.9938199764408,886.7666644942892,824.8296321453538,0.1088,0.1844
503.0327131113677,665.9267358218588,-291.31891708315163,0.4897,0.5843
74.93546729720606,-208.1366835910536,-329.5238646835859,0.7709,0.4454
461.46779602945344,191.5174847813662,929.0596922184905,0.391,0.7685
-939.3538998418201,-153.18847489367943,246.56430117030732,0.4324,0.304
-312.4505980174455,584.3530322252993,143.49251558497917,0.6086,0.8416
526.6445594837314,-366.1743035293681,56.14133648056122,0.6283,0.5538
855.2909249764127,-466.7302331487981,-720.8962545689892,0.3002,0.2764
-145.61242795598957,-264.11314485780156,230.7727712633582,0.7807,0.8845
593.2023782229446,101.29835501466914,459.0214441423832,0.563,0.5888
-502.06773461399143,-571.3029228262685,433.45583294614335,0.4946,0.5983
-25.479617573691144,413.34928586769206,-601.4008753383762,0.5784,0.5339
174.13457650880287,-628.8811018782976,569.7090010155168,0.4999,0.1356
-399.458614104081,592.9409073218524,152.45601592484718,0.5779,0.4183
593.4848386538051,474.94344484057297,-595.8870533758741,0.4424,0.8143
933.701580508593,-996.8678416923269,905.3864161585607,0.0539,0.1645
-122.41600252480976,-271.63329120342405,-823.404006707017,0.4944,0.1972
889.3375419820272,162.56223409175027,-987.3290286444308,0.2271,0.903
-963.2023053785716,997.0447263158842,413.72566521254225,0.1647,0.5703
591.9523335883841,395.44239836103634,707.3036591120335,0.4206,0.4082
-532.7835620987618,914.3061898978754,-126.73662618266474,0.3847,0.3481
-973.2968673220583,-989.1128584956324,292.59653748025335,0.1812,0.2324
455.06678268336464,-384.20155157979013,-984.6241002230221,0.3356,0.7158
-439.2687487589044,-990.3382594359857,258.7576547778133,0.3569,0.685
144.75316506151898,985.6328736867918,-990.219318772879,0.189,0.5771
-123.31157451410002,473.0498077057771,-88.61208899853,0.7132,0.2824
-347.6069826052375,-816.6920144226735,-761.5700851148492,0.3248,0.2148
-664.0832751203938,517.9343712509453,430.9035040011013,0.4538,0.7825
321.9987933020152,828.6378900636689,-570.2586624372681,0.3902,0.5207
755.216068557289,-750.9555601829657,231.82733149690284,0.3707,0.3007
-716.8239293358054,906.8558562044295,351.3660330960711,0.3025,0.8149
-887.3586910742828,279.23803702990335,896.7015168304258,0.254,0.6378
209.35588854220828,-203.10013514728985,-181.8551763635112,0.8015,0.8658
-518.1215212196339,-887.5992160126807,-822.791247435711,0.2399,0.7007
-555.1299408751485,123.57907959208251,-943.1337105404052,0.3641,0.5
-979.1680279044175,225.9088753933995,340.70473958663933,0.3874,0.4921
14.571799670756604,-260.02650525755394,-443.78698411165976,0.7029,0.4833
-596.8678959607647,457.5433373121348,-826.2862052524424,0.3549,0.9674
-143.4664870555755,933.534478504816,784.3984983402995,0.2912,0.9369
780.9997979539039,-178.44408845808425,392.67849904224227,0.4849,0.2838
-667.6476462515545,-465.7158991909098,-918.2366147039842,0.2915,0.448
987.39384093584,-176.4312108591473,835.2932805085479,0.2464,0.5407
-539.4866410521581,549.256288658393,690.7700459362607,0.4028,0.2348
-54.55186440767784,581.938024332256,-946.7835156675042,0.3576,0.2572
771.1822635414446,480.81586269250784,-936.5286531891111,0.2466,0.14
731.3029517212049,527.0544265449557,719.8336410402599,0.334,0.6792
-124.54432285449377,551.2070305575564,314.3669398908828,0.6267,0.192
751.7382422713229,237.63536130350712,487.88118396626237,0.4647,0.234
407.2180104602253,421.0060323406833,-667.7972812700095,0.4872,0.8695
481.9834685957326,-473.43714749051526,557.0327018442913,0.4945,0.9958
-550.0588930923766,901.006467200978,148.555104167458,0.3845,0.426
780.533667509806,-576.0670283981017,-796.3352935755179,0.2754,0.3089
206.3086462683143,418.09817529876,676.8220080622284,0.5255,0.5288
-920.5585490339055,-443.6659614366396,688.5766616132362,0.2886,0.6257
967.8021179922057,222.32672572670708,435.19193512461516,0.374,0.461
599.1850066217767,150.4184661651143,-127.2963185740748,0.6358,0.7201
710.0161327814565,-470.26992967122555,-23.985851657690773,0.5081,0.476
755.370996578725,-588.1047174198577,179.05223202825027,0.4377,0.7063
26.21022924632848,-858.0525399785897,-112.37946766064465,0.5001,0.8292
-307.46881536386184,614.6072578496485,242.56815076455518,0.5792,0.9973
-657.6450460702454,-335.78008329296676,-633.8899598703367,0.4381,0.3313
235.3420010514842,-855.6514174524,807.5303045109501,0.3073,0.9422
-603.4304140179112,-865.0692675720843,856.0663407007692,0.2157,0.9781
51.55585738754007,-943.3621541376898,-167.3844044646304,0.446,0.3399
-717.7190711969458,-700.7053210604765,-354.12587334224145,0.3859,0.6975
-964.6930243531422,375.59128630614487,170.02512183009867,0.3943,0.7765
-87.72313560888517,-842.6974840595169,-368.55403400065256,0.4666,0.1744
278.8732640151511,-882.135562161773,206.16968827420283,0.4528,0.592
144.90874281208517,-113.4934490021235,709.3688398351621,0.5769,0.3461
-27.525346227222485,843.3767427728633,-273.25541639067774,0.4879,0.975
306.08100990902676,-217.7298547405726,-246.76165406387906,0.7405,0.6241
237.88685108437153,-180.91403271898196,190.0570822847219,0.7955,0.5687
-283.43040398177857,133.30732295014855,184.05744487952256,0.7903,0.4777
-456.15541570945004,152.38877194958445,-365.58532401427635,0.6512,0.1393
356.4084986670905,832.8570180888453,-107.32584206008892,0.4733,0.1421
498.9489406619375,5.244966423187066,500.45796121820376,0.592,0.4595
-763.5702843949119,345.891791678004,272.6141113223225,0.4911,0.7673
839.1457572940335,-400.7283360275959,3.8565857155792855,0.4631,0.9227
-734.0286339531744,-243.43971149580136,-975.7393324385744,0.2812,0.8591
222.07165284784492,790.3032842375787,-212.85322878399188,0.5104,0.3688
-300.48728713501305,671.6859737815078,612.966159573162,0.4471,0.993
844.5589405659339,639.739736383402,-630.8803938438978,0.2881,0.6463
882.5491110916985,248.7340824182918,913.4774755961034,0.2527,0.2998
968.7063340293821,-476.33496901268995,-534.384863786566,0.3046,0.9444
-167.14843669408253,245.40896076951003,-397.0541399483827,0.7138,0.5181
655.0630305465813,-494.9860406724531,-771.2003076643674,0.3496,0.562
720.0560009333442,990.6192533891551,543.0172618317563,0.2265,0.5087
945.5480225449526,27.036806758984994,-945.1986086682705,0.2279,0.6201
-683.4323895810501,627.1238824138479,-706.3840435000754,0.3269,0.6982
-868.7528976404355,-307.7600887466816,-602.948164185337,0.3641,0.5989
-412.2541500753101,713.9803978922262,-778.6994218789757,0.3452,0.9083
812.6681246152307,-283.4373163698816,-957.4220349428876,0.2567,0.4083
-651.9876899459518,-327.63022363845255,-289.41556531721767,0.5468,0.1034
875.3090912938526,42.731851433564316,-426.064184122185,0.4374,0.5474
143.88850110410408,582.5164737253269,-500.4508364766056,0.5489,0.4829
-321.94339763320295,-907.2542248421187,-976.218912403327,0.2084,0.9788
564.3827676277176,-557.8439370556896,-51.220595270838885,0.5409,0.6937
-85.85027210349062,322.1455323182943,-981.0603751562111,0.4018,0.1068
635.5676131856515,-787.447888800142,-884.6291068991618,0.224,0.2016
-935.7510838793551,628.7794246173239,-787.0452343843904,0.2062,0.861
-595.1756074702168,240.98424829609485,-333.7072815874719,0.5822,0.9165
515.4188233235898,44.331549043153245,-170.89295007152884,0.6854,0.6435
-758.2388151058858,-817.7436016914926,-342.38616697330576,0.3265,0.3855
751.7363173292188,738.9150178204279,847.0432861846944,0.2193,0.6182
64.67213599827937,-22.574068065313213,-908.7594337162226,0.4738,0.9883
835.6169134950633,95.42152890008765,915.6645852016163,0.2822,0.5711
-104.44843286977903,-709.4416503815733,-790.2224041918136,0.3839,0.1833
211.28725694811965,-888.3564618007065,621.7123783523532,0.3622,0.583
-782.4863781670101,816.9883185846888,-594.0425866639248,0.2623,0.1701
515.3071941009084,-659.157266691406,-710.2270482229893,0.3664,0.4141
366.83654804306025,294.38662273520094,-905.7092026877162,0.4108,0.4929
-317.57860049225803,-422.31153686875825,-576.6851826711761,0.5484,0.1088
746.7878537792612,-577.3789338123305,-186.073991819016,0.4445,0.3475
-467.403043820565,718.3767512126772,528.3715459708255,0.4187,0.9398
-175.79365608818205,453.31937316682433,299.00037034850357,0.6705,0.9637
-935.3783989595456,799.534158176366,299.26427649029324,0.2688,0.9447
-962.4209645163162,69.42354268278882,-913.1573820840513,0.233,0.2096
-748.1658343800617,482.0292259622047,792.3075913595835,0.312,0.7068
91.0812290403644,-699.0600159720834,399.3039921063878,0.5322,0.2039
-257.6572538705524,-266.7926936216445,675.0114828975088,0.5553,0.7534
43.268211845328096,335.122547412514,-593.2520924980671,0.6058,0.735
-327.0982886672093,457.8403597258948,-614.7070934784697,0.5189,0.7483
582.1419412690384,-328.9629046823808,842.3882374156219,0.3791,0.1315
-415.16089681070173,-693.6443306449028,-524.244781864739,0.4437,0.9944
151.6567759253203,-378.10026636239354,783.0329929216173,0.4904,0.7949
-309.34253257829505,-609.7178420571624,-739.484699233258,0.4185,0.6644
442.47384058692296,-620.1672884707572,499.63035461435834,0.474,0.1359
-45.17026921933984,734.2316781532179,-811.9835677817939,0.3674,0.5909
685.3449976532186,-186.4347085435594,-833.5658310603951,0.3677,0.3969
922.3059112839587,522.8157955829172,-271.04217381899036,0.3682,0.2073
-834.2442985688792,817.3386021340043,998.8815730657734,0.1127,0.7568
892.8334287134753,472.4516261854917,529.1083587279975,0.3416,0.1156
78.00092417544397,669.1917839234857,345.87084505077246,0.5628,0.4789
-639.7198858603117,-963.1899999799675,-482.16779929694576,0.2767,0.1291
214.76091471550967,646.4416543915979,187.65815833737906,0.5921,0.8853
474.1293760671326,-419.6254849358328,265.3018521700028,0.6037,0.7579
299.8849280236916,-993.106125973965,206.67078095467696,0.3893,0.5692
897.1489246788574,867.4351706755494,91.02613254322068,0.2776,0.8796
214.62266699418137,162.2876663955235,-578.6990390115516,0.6315,0.6033
-579.3145296200217,949.9943928903374,-185.5721922370626,0.3487,0.2869
215.21514814937382,-153.2965923320828,677.5929391466207,0.5801,0.7052
432.00867461711346,191.79861511230934,453.5235165899064,0.6218,0.2281
-687.3610784607876,540.6811365091428,860.4119325988765,0.2917,0.4358
-502.5882867766065,911.3994967975423,-409.5051097779982,0.3543,0.3253
751.5357398652106,-655.6005084498395,-188.30043751427002,0.414,0.5346
-25.757510977964216,964.3439428296301,612.2948231688688,0.3403,0.5314
-112.67758844356399,943.53849019884,997.5883004505895,0.2046,0.4648
-917.4948593006853,442.5216970350068,427.9531263005615,0.3621,0.2392
400.09416032693866,998.1229836872315,317.48628033990803,0.3527,0.9144
-292.6421153489083,398.74702388090395,759.1028333460893,0.4769,0.5068
-99.05774325132245,-944.862693110117,-543.1640700196222,0.3682,0.5253
-940.8637328129963,153.96313369252334,-939.9664981120748,0.227,0.6364
945.4119519999833,906.8209412361871,938.1273510784056,0.0697,0.3856
-50.61237875373672,254.96346627002595,188.31350955802054,0.8147,0.6158
-33.02148349932236,785.719852450108,-768.5373213621796,0.3652,0.9011
756.5177728175538,-417.3201800264876,434.73811074825767,0.4416,0.8389
612.3773357337127,-49.81571838845002,-741.185216919288,0.4442,0.4614
-907.9867864213464,-716.294661832607,-257.64560519336646,0.3159,0.3899
0.8515863487021988,-789.685060117664,-627.7944837302318,0.4176,0.9061
-958.3800457014779,761.4443083337815,-99.7657910505227,0.291,0.8012
603.5181553562179,976.2319584063521,353.03327623902555,0.3067,0.5966
763.740259924039,-384.29188674204727,812.777305528929,0.3189,0.2041
-185.51692776080552,-643.18014435925,-266.46188767759486,0.584,0.5539
373.92660582776693,-272.5643139334553,-734.8896014573468,0.4986,0.626
325.3232277499844,-306.9789168900505,7.993252697379376,0.7417,0.2528
-285.92687008191956,363.2806548615008,525.0613498841719,0.5961,0.2348
444.2396054465173,739.2528980378486,-35.82046871074067,0.5016,0.563
300.92379338325486,-344.76934532777875,907.320995096437,0.4133,0.5122
498.6389014295187,940.1958966864859,-674.1755439637498,0.2726,0.9527
-860.5066172789177,781.4752932828001,-832.0561699934066,0.1747,0.9959
-317.473351672934,996.9124467795557,156.59525424500248,0.3892,0.5302
-444.09913544959886,-917.0667330914117,-945.9199898771251,0.1973,0.57
914.1654324460137,186.77174435484335,-463.54852057245716,0.3985,0.2861
-379.65056825403383,-616.2122577565667,-423.2297024551084,0.5159,0.8295
-956.8393072176866,-436.1555808427702,-722.1753987555467,0.2635,0.7075
115.66083901872548,-636.7442055597987,806.1141021166154,0.4032,0.8
554.9725543613206,-67.25752490561979,451.37891173628395,0.5852,0.1266
672.3622234078571,797.4453933390043,989.2778931062353,0.17,0.9412
-226.30454557503833,369.1871895444913,631.1044408758655,0.5581,0.8831
-137.83886019720137,-587.9568676987266,217.50018340704355,0.6294,0.2089
510.0815529534393,600.3137720298848,956.9596930837718,0.2844,0.987
-198.03593074560547,-890.4804408758944,367.87206539728777,0.4321,0.6894
-370.74928411946723,-208.28266271217456,397.1301533071703,0.6641,0.3899
496.02272577442045,-284.95788645039363,101.04362322592465,0.6646,0.5517
971.7543149964126,-868.1015498235967,-631.5770609125859,0.164,0.9791
482.18782852222535,-378.47573521326285,19.6364740071773,0.6459,0.9136
-683.0338943254601,139.90267331986956,-919.0338110543048,0.334,0.9899
238.16133887538126,949.5588074331363,229.60836014891902,0.4195,0.4551
118.19669870942357,890.5663942481187,331.83853005881133,0.4471,0.3262
688.4823370080401,608.6333356938426,-888.6074256709271,0.262,0.5901
803.3565595659534,657.6769288502874,868.730130993491,0.2184,0.4378
772.0363937429745,976.659769861375,-933.949824137213,0.1015,0.5334
-275.61121711828366,477.3194489176401,-849.5171267962825,0.4153,0.8952
-104.96440666140745,-194.37137088629913,974.4732704577707,0.4231,0.9627
288.4884021327141,960.8876184583485,-928.554456247992,0.2108,0.7518
-909.696494188736,999.5368825042106,690.6556396460451,0.1237,0.953
-242.66177525448904,895.4971323013772,351.80907993793835,0.4271,0.9176
409.36053884201783,-591.8962012497253,482.86585634077005,0.4996,0.8031
-211.59603114157233,-946.3871851365433,-663.320594368584,0.3217,0.9784
-790.0716672267245,-719.6044520906039,658.0927919942446,0.2754,0.2202
-265.7223040656504,3.122589665329542,-345.8828749807359,0.7482,0.8741
796.4435128109155,102.49338477636661,226.59215267445643,0.5183,0.3689
-244.093681502604,418.00868720242465,-322.29422250036396,0.6642,0.4522
107.38122489433954,983.6155053127309,-254.52306372184137,0.4101,0.8453
487.80456593780946,922.8941758440885,999.1149884227984,0.1658,0.5737
-624.8499901345734,929.8910497971817,77.03664725527528,0.3517,0.4949
781.2309035324604,703.3018024140943,711.1278210268113,0.2673,0.1351
-736.0103297261494,619.5794150627783,-396.94410288013125,0.3991,0.4308
172.41179178282914,448.80597579503,324.79015973330934,0.665,0.1082
23.75053781367683,52.813830410241735,-508.9359439030063,0.7043,0.4792
384.83271595614656,-662.1512252721504,17.8214309983706,0.5577,0.18
-549.3496010151995,217.17700561336346,-158.67913814524547,0.6469,0.4652
-526.0934198534957,435.16797011240897,-999.8675627518141,0.301,0.6275
-216.73330078767685,-580.6647949181485,-91.29998634095739,0.6383,0.1839
-540.7303547572831,163.87214363667772,232.86781498116693,0.6472,0.8624
-493.08649753720135,973.032953949709,-987.4208134333775,0.1505,0.2082
-581.4260512041938,931.5628475000999,720.3179851775312,0.2418,0.4932
225.90188256453484,170.0816702996242,933.7183836835932,0.4367,0.1999
-523.1615305057815,841.2386687578366,747.4844060906485,0.2835,0.7162
-295.28844208394105,59.966519058801396,-967.2651919413767,0.4151,0.4427
571.0916038974583,878.7702174571305,-449.3271189690389,0.3416,0.3756
-277.94072568863567,-285.6202817560545,-926.1086814901516,0.4179,0.2273
977.8662420999015,-655.9352651079639,-803.644316974474,0.1769,0.1734
-874.5968032288985,-862.9918412546076,-36.855413563039406,0.2903,0.4119
492.896559373085,993.5744082597841,-644.4893433625346,0.2594,0.7243
261.31839121231087,-727.7576686352103,154.95670086824384,0.5447,0.4204
-608.9830555017635,-863.1635067237036,691.8966478843884,0.2709,0.9743
355.016283104374,750.156160869893,669.1659304228704,0.3845,0.5984
438.089411757858,-515.8062882425636,-773.0923780465326,0.4068,0.7007
292.788599533352,-328.3726110697123,610.3323096083056,0.5656,0.5697
191.4041343419442,-375.35269936595523,-974.0337582415821,0.3873,0.5534
-497.15927389382574,-562.1987614418179,699.7272610404007,0.4076,0.566
-727.8981720105098,-844.5692109723389,-188.76227487043718,0.3471,0.6263
-886.5190603631445,573.8949359955247,-345.7440159301284,0.3584,0.3282
141.55168235573387,-550.8669292959046,-474.4169316817257,0.5724,0.112
463.00932860330613,36.37626864027402,780.561572803424,0.4756,0.8909
417.0870312543882,-735.0432186819914,-316.77952156520246,0.4789,0.845
201.43310578774776,811.5320396851464,-693.9868949998913,0.3726,0.2725
-385.91679212027907,-785.6336231098446,737.6745112218023,0.3391,0.7642
-742.063458064476,564.8429731794038,113.73068720924084,0.4576,0.1906
328.41090772562507,-896.2465467908701,-74.25504990674472,0.4472,0.3375
497.668330141003,315.0837910067935,396.938519609095,0.5899,0.901
797.1501625374772,762.1418300206049,-212.64573156943652,0.3515,0.2041
-395.1111118135493,280.65061189397693,-802.9386757198391,0.4585,0.901
128.71764263786963,73.47911653572396,-871.1617991935683,0.4898,0.1436
611.5113299296931,837.4644139958746,381.62369017049673,0.3621,0.7155
522.6903342258358,676.2766641517762,-564.535731071953,0.4086,0.7468
202.20068722431347,996.9508870934021,-12.40561394613394,0.4126,0.8225
681.7767737719767,461.8375898725608,454.4434504286248,0.457,0.5312
-891.7745657633003,-64.36184082210787,-659.379634043069,0.3586,0.2981
-650.9028766232611,-380.29603687016686,529.4043136081414,0.4682,0.4261
-983.3828845204212,803.1370816555143,-119.90208657452945,0.2637,0.2179
-543.7294321987496,20.90193822813808,-683.9998700751435,0.4954,0.5825
918.491427269661,-619.1764594469948,514.7116647621367,0.2948,0.2934
527.8329077147293,680.1821133937526,748.3730898081308,0.3414,0.6095
-902.6990889179178,543.2299498170003,618.8812693193995,0.2946,0.2722
897.5565258594336,-560.265184364845,418.41185454499987,0.3431,0.3352
-224.12115018674945,362.7620961535886,-463.5837356198605,0.6363,0.2425
604.910373545436,-119.26569678271062,-539.709335590103,0.5269,0.6448
901.9630564874226,92.62777376042004,-121.93252820243345,0.4718,0.294
799.9043224420054,535.6708746275908,988.0806587700085,0.2035,0.5351
667.4271149806125,489.17229515882286,356.18214512536383,0.4799,0.7802
-598.6614996022374,-152.67054839259322,-348.6365385588093,0.5904,0.6019
832.3675310309186,-150.03186701036486,33.23319095803322,0.5113,0.9767
167.41775304519547,-627.5808367781331,-268.0542470198146,0.5943,0.8426
-718.020797425811,89.1076683563058,-557.3367522728588,0.4727,0.867
-350.8415083689,-174.24470612699986,-912.6919032404594,0.4266,0.9814
-572.0341851754505,899.2134905382532,712.6365307116516,0.2598,0.24
674.1244597538557,491.36899423286764,-907.5247647172109,0.2883,0.7414
412.7320508257196,456.75019391868364,404.86765117973414,0.5746,0.1902
958.0281229458001,132.21091625546092,703.8645421506703,0.3094,0.4766
433.0307264589576,-893.9138677186813,-463.3058199422386,0.3672,0.6208
-41.89984952202349,867.2615625269852,-536.7577595631196,0.4106,0.5532
535.2603550574472,-3.437246373788412,-80.20513122260638,0.6875,0.1919
-673.7634122380467,781.236428489547,-835.987922053117,0.2334,0.6316
-638.5593581111918,-469.7483331557104,-833.932943028617,0.3357,0.1704
960.2339513134445,351.1606155552852,-440.2713275690455,0.3573,0.2998
785.3543077625218,-383.04241168341196,-984.1815131745508,0.2401,0.2676
-806.7263929471555,395.34601383087784,673.4590082986113,0.3518,0.7929
352.05235885343313,-664.5324178731591,444.46634586233426,0.4957,0.6469
-701.1445189951951,-557.9358281780069,645.9065705767891,0.3623,0.8555
797.9442976229495,684.657902970443,206.60283884347473,0.3814,0.6323
241.92446098998516,-709.9592421846608,-11.41426786171371,0.5669,0.1325
-374.53219287663455,180.87649773662042,-825.3717614424456,0.4664,0.9954
-590.1687288729947,405.3497362036128,-113.46039616085534,0.5815,0.83
259.17961070433967,-975.04308803294,458.7705886361348,0.3601,0.3855
192.0289685494522,887.6681851550823,-663.4252486689745,0.3507,0.6897
888.4363749367521,909.9506248463101,673.7238174617053,0.1691,0.236
619.3589222406476,811.498792285756,669.5443445552089,0.2952,0.6271
-482.11821081996015,550.379965700713,-880.5988104609416,0.339,0.6565
613.939637106567,308.2155545355631,-539.3287079797703,0.4958,0.263
-209.9604722986013,783.8645172381846,-441.7063366641487,0.4666,0.5393
923.1579343633716,-200.00936927479756,-459.97482973501724,0.3934,0.8016
-457.50851685390217,163.849925256201,582.755258352407,0.5619,0.5383
811.7511904403739,885.4297894324568,945.4438721526021,0.1174,0.3956
493.3518845538347,-286.51707311805103,555.8365666647051,0.5401,0.1072
-859.272436742557,-178.2302705403946,-994.95977337692,0.234,0.4486
258.35552319809335,-695.235674159182,-405.6262032677042,0.5119,0.1547
343.4825817565368,-245.37963035593395,599.9557422510945,0.5765,0.897
805.5556038459633,-151.60127970023927,295.1806448602638,0.497,0.6775
538.0820599604085,460.2591482696371,-489.1191717570227,0.5031,0.5244
-601.2690388734284,-831.5005552388827,-197.99187640437356,0.3966,0.694
80.35747385670993,796.0412881203536,938.8735657589291,0.2878,0.7644
109.30992188682876,-331.5548074353918,-574.7760790541583,0.6117,0.9632
747.4671348193133,231.18873880814158,971.6712300835832,0.2797,0.294
-239.26169082006027,16.11234904945968,-682.6206208673435,0.5823,0.9861
913.2689026312448,-341.02262102631187,-565.8821997963108,0.3492,0.3212
880.9153338315989,97.22328299338005,225.00289139855226,0.4721,0.7483
-176.2949020893618,-915.5746239374822,55.89980093119584,0.4607,0.5833
797.8078314333723,-975.3553837078861,800.295999939621,0.1382,0.8242
565.9390034305991,116.10843826907649,880.5530547916928,0.392,0.7745
424.52940968106714,979.1176425146864,-263.7914951175193,0.3653,0.771
-392.3077940547271,-613.333973793418,-742.1301121509061,0.3998,0.3684
-22.93473906499412,292.1778271649878,-263.7798216316694,0.7723,0.4821
368.31141948621234,-529.1517799909805,-203.9741050090256,0.6096,0.2425
-238.10919186985768,496.91906207272996,627.3294522309977,0.5179,0.2573
-666.6013302991953,389.47842611027227,450.8759168237166,0.4838,0.4537
-451.6035087064985,-792.8759931630714,-522.3146849758829,0.393,0.2352
-899.2519852994697,43.396564792597474,-607.9064532091279,0.3728,0.9699
-455.7511740262845,-275.21758159613466,132.11955857706994,0.6833,0.7859
-588.4632652602797,-569.2129582641971,281.29068652293176,0.5002,0.852
980.0251991329706,-83.2765370651789,520.6536469481628,0.3575,0.5498
-212.75317792898193,-120.020491999216,559.0069078170548,0.6478,0.7474
-43.874019535355046,616.7567761499886,-157.9058584067949,0.6316,0.657
-430.9872708906868,379.92761917712346,196.08581270158538,0.6495,0.9114
705.1689050480963,693.7789439904354,-270.35183971972526,0.4079,0.1793
-767.2600751652567,883.1988629803673,703.7733661191405,0.2117,0.2077
-376.5820634776911,-465.6313958153744,751.9320107317874,0.445,0.4656
-570.4153717981239,-49.867867057540366,207.33134810096772,0.6484,0.7443
218.31916465195968,881.7636545065382,-677.1865060368732,0.3458,0.2633
615.5720356094314,987.9914685188473,-622.7442667091294,0.2378,0.8049
-817.4399373497249,57.8302812577665,-506.7562674600572,0.4437,0.7526
683.4049303864617,856.8394193762508,43.464660238300894,0.3667,0.4629
-932.4076759713096,649.1612136357312,679.9980057297767,0.2355,0.6229
-650.3016145680365,604.1645999273758,763.3570044555615,0.3241,0.4331
-868.091341550296,-541.1591376941935,64.17650922912594,0.4082,0.7253
693.6715159366286,998.6660440185215,328.4488238502229,0.2728,0.5924
218.49384038623566,761.3125264746291,-667.7685779479854,0.4019,0.6557
594.2033189236768,435.67386246341835,592.8254337391015,0.454,0.2618
681.3400811879881,580.8526684133865,-230.9732048875361,0.4662,0.1789
81.79459823222373,779.5945933484477,254.72569979486343,0.5241,0.4473
-473.1238227531154,355.8019536060863,944.0808751855382,0.3566,0.3188
-429.85179758960476,-64.07220849363625,-424.98775217717787,0.6491,0.9078
-673.5947479431834,-813.4561490848669,-235.2657578181154,0.3753,0.5243
224.80598568571463,-68.48498082115691,-419.608926539722,0.7223,0.4883
851.5652260946292,-129.46909099588493,900.4213513035959,0.2806,0.7435
314.45611491040813,-920.0065546411452,-698.2252749193245,0.3089,0.4894
-702.8594159725499,-371.600811332043,-495.1585876942664,0.4592,0.8622
102.60494654112108,981.4561724243722,-319.0473325569334,0.4012,0.1659
508.808252788205,536.3089136407473,-709.4944576048306,0.4084,0.5585
130.1628162408481,575.0939396080653,-435.1386560330533,0.5769,0.5144
-345.69413347576483,97.8386148946604,221.1606727425626,0.7564,0.9679
-279.10036742511716,161.16703822755812,-403.08321422102904,0.702,0.973
564.0809307474692,553.0579230939525,866.4738495564336,0.323,0.8907
-868.7516265723099,201.00702954061308,-415.8184504956346,0.432,0.2861
654.9401106060134,753.9496372304609,-874.6458959494483,0.2335,0.31
-196.98842930722685,-680.2208035319151,-368.0815669732931,0.5392,0.8167
-796.5192489960325,-150.63515165440538,-530.299397014578,0.4407,0.5831
-883.3418693315906,514.4646151581928,422.5966130778354,0.3614,0.4565
708.4823866957988,-244.5136579027676,765.1787822947799,0.3816,0.613
-275.8617631300302,946.294888285338,-746.6331540861257,0.2861,0.4993
-357.1452481771464,189.29589431047566,-954.887675026373,0.4013,0.4044
-780.0105126592696,-759.3150862959201,32.018005860913036,0.3712,0.7554
-107.30421246359856,446.6423262858782,-709.4815469976397,0.512,0.4949
410.93840923150356,-122.94299367238182,-707.3831084573538,0.5224,0.7908
-23.629912855686484,-507.57029705306934,-127.98234709442352,0.6975,0.6894
-408.8967550953096,714.6627705898873,651.0425477217336,0.394,0.278
905.2815348483668,51.99907791760961,792.0761488138876,0.3049,0.2356
-251.98868405548262,607.4234522958459,112.19787478457374,0.6148,0.7439
-83.56555418305095,796.4073011025146,-223.33253322418602,0.52,0.7333
991.6378873819392,185.13234331580156,-490.60378256535506,0.3524,0.6576
576.7481945071979,495.2585425732666,767.4534572835939,0.3763,0.2739
626.8729785809896,133.83290058584635,-944.0545137499674,0.3412,0.508
-324.8446637664417,365.4653292454027,990.2183903830164,0.3624,0.1964
435.2539326825165,-391.0496698851547,970.023139965404,0.346,0.434
-909.2193930247882,-70.46569131883439,953.6956060282043,0.2382,0.21
-860.7107404566998,-544.8931111116253,-706.2397851885166,0.2843,0.3295
-92.62339355054337,579.2852423218221,138.10776291068396,0.652,0.5528
478.42880192295934,-284.93766268719355,984.6115757253317,0.3469,0.6125
406.5335677326743,-36.69229411234801,-958.968125889385,0.3983,0.3936
648.6878053095468,-551.4001178216731,-7.192028180088073,0.5084,0.4395
-381.99311761423576,348.43843105221094,702.7422254622202,0.4963,0.1385
-728.637692617647,201.49091577718923,406.95700767086964,0.5043,0.9133
926.0145751521788,994.3411366210007,-302.40522765272976,0.1963,0.2478
-582.4750668410428,-252.04445855683537,241.25859394846952,0.608,0.5065
-441.22325915825036,354.90335693977886,-783.865644134871,0.4417,0.1905
-524.0523116523259,-517.2835683249923,60.684315603913774,0.5734,0.5833
138.25527393767402,148.6067680179035,-243.33747287733627,0.8171,0.4944
458.1304566584097,997.4947244861644,86.88817097877222,0.3643,0.7406
-866.6032737530354,-341.74639451982114,-799.0800451456596,0.2914,0.7414
-55.74403660607436,706.455205319576,-197.88308710180695,0.5752,0.6825
309.81256887611517,-238.0090457060851,380.5618050912515,0.6851,0.5766
500.1740037900961,-314.28764098496504,601.9549838833414,0.5131,0.2752
-547.3733549019344,235.8550935242747,538.6677179036756,0.5362,0.4171
-84.16786852841733,-79.18973037658247,363.50383825386666,0.7798,0.5554
244.34019880000938,596.6828182940781,-355.5807479652999,0.5749,0.6487
408.7149990934756,-719.0584130392315,432.6918023971705,0.4611,0.9166
-998.3750462291318,-859.4836576925449,-60.48289509140318,0.2386,0.7922
994.173891510336,-158.6212336888642,-918.1992883849571,0.2133,0.6213
841.8150204515175,-50.27779000969463,952.2443254890479,0.2656,0.2821
-697.1025112161456,-801.3379893880488,562.7051416645056,0.306,0.4149
728.3073879541328,-214.99127715050736,-222.13202590539356,0.5432,0.9721
497.16851752342654,126.37344710671164,-908.1171015975491,0.3978,0.2747
-643.3817602917549,-375.2320724473972,-110.8541389465878,0.5652,0.4575
-996.7469504682554,-536.2655125314612,630.973961767821,0.2518,0.5197
968.6300447048966,-778.4716689425766,812.0485526286832,0.1429,0.2679
-154.07289290538745,-389.44895359656107,706.3258968842815,0.5259,0.4758
-605.9798940702736,987.1817643108909,975.1287310074047,0.1258,0.5329
658.616969083665,-914.4148437177711,-350.9945931592466,0.3185,0.6435
135.13562439480074,874.7214822476935,459.26353730584583,0.4243,0.5628
-430.46663942322834,-643.4655593693999,-7.27930470773731,0.553,0.1267
367.5079973894119,-657.9599933874973,885.666229911599,0.3286,0.6284
23.029564208190095,-795.6666087676269,-384.35032682082465,0.4897,0.9322
112.0618860278637,-264.7547902284433,658.4162503115106,0.5852,0.8975
312.0135608249402,-974.3302019052604,597.7309499524633,0.3159,0.1316
773.1539619605055,-500.3782065910667,-193.17443119460222,0.4567,0.8575
215.05024878321683,-974.1269563216131,-403.17644004867304,0.3788,0.6159
491.2246643054466,-895.7323968229518,-671.6649876515968,0.2941,0.3373
-563.673774764196,509.9821474749381,787.1994934355594,0.3682,0.7644
-638.1082099178536,704.3171681800852,-810.3047841468249,0.2789,0.7135
-287.99031123292184,162.73023505176548,-856.9985466602268,0.4696,0.6876
693.07406059392,944.2907893850559,-952.9907926224597,0.1282,0.1737
285.8324011671273,-93.84837869013188,-33.68529378751293,0.8252,0.1523
-226.91927264574497,185.68142048874392,346.1037109162464,0.7381,0.1214
210.70830061965466,749.5887976633255,-175.60914252290627,0.5392,0.5296
693.4894789412554,-484.36762106952585,-594.2098052096958,0.4032,0.6671
323.61624197596166,-659.9746649117258,925.7039066179693,0.3175,0.3139
-170.40169552134432,-630.6162559930629,595.4315972876732,0.4897,0.1542
-968.8505973748951,-161.60289634853746,230.5881644171102,0.4175,0.9996
-725.1706998907352,158.00233957219507,291.79106991359026,0.5396,0.2856
966.2546595176859,350.48681258552074,-13.69109074148355,0.4065,0.6872
-831.8610745985264,897.1918162714999,-264.55391511955463,0.2773,0.1832
572.6999924859895,-987.5140713218647,-214.1676329705706,0.3294,0.8535
-30.802693451181085,-714.7738251551343,-243.24928126423663,0.5637,0.1264
-578.7802224938405,-715.4279333240381,364.64417998667886,0.4285,0.4751
376.48217104858236,880.6841482503755,903.8977038213438,0.2397,0.2698
430.99723579332044,261.7469399457723,-386.49683824888496,0.6332,0.918
-18.24278491222401,755.001792891092,937.5468771960684,0.3049,0.8088
38.862696060263715,235.45974165900657,-961.110146632564,0.4283,0.8286
467.3120365912878,690.0928373719485,323.6389471402638,0.4838,0.1534
-506.4340309730289,-814.3362558022493,-241.8701997130321,0.429,0.8407
929.3150241325764,340.0730580697807,-754.6456779661956,0.2815,0.8057
940.2865004098621,-133.54431777644436,-694.8837608288245,0.3206,0.9086
-890.6110137947161,93.37921090299574,-918.9611341035018,0.2592,0.7924
464.8072832600915,-260.2546270589859,-442.8283430457627,0.6001,0.3141
442.46997745963085,217.6407106202828,-668.7611277337418,0.5203,0.6315
-25.330848163337237,-888.9804520060686,552.2678368449413,0.3956,0.8895
-386.6165807480178,-737.3198805977952,72.01168590054544,0.5175,0.9141
-322.5996313392352,409.07067625609056,-973.3290229177176,0.3626,0.2557
-874.0947339950158,-510.60638444343255,-835.5345023910747,0.2422,0.232
290.5524601732959,-183.33011741941357,-850.8171930755694,0.4702,0.6396
-64.671267399734,-934.1659689537494,399.7662216239835,0.4122,0.4913
911.6067761948752,648.8974950476925,922.9510329834575,0.1626,0.4152
-601.9108421365893,-549.4206986745085,525.9077608857815,0.44,0.4634
-363.1560034398344,769.5398340181671,-860.4777283705736,0.3013,0.3611
-571.5153110446083,694.3713373344724,148.5832033838078,0.4737,0.9498
-919.4716814013009,271.0736949800753,825.9600594727897,0.2694,0.8284
-334.2773444902567,212.49455944784881,-730.5606672299255,0.5202,0.8795
578.0563189017364,-378.25439529611856,-688.6970682982992,0.4368,0.3019
-802.1986875083662,-48.61891699754176,-493.20360028849655,0.4556,0.4737
-742.0204000356548,865.9572738553786,861.7666001547284,0.1747,0.8929
-175.65630508703362,780.1245094459218,409.1526828383328,0.4814,0.347
891.4647188097056,-891.5624753519627,-968.6206626780418,0.0821,0.4016
663.7288489552204,-85.40306654320375,820.3598011768506,0.3888,0.3863
-117.20757634823826,580.5899301294075,-88.3510118423469,0.6543,0.2916
-469.9099888389053,746.8767377737684,-188.70365456991317,0.479,0.8798
976.3726402689831,272.43070933383797,-982.0587562504605,0.1851,0.7063
-215.28620261443177,407.6682292810351,972.1775065213446,0.3788,0.3671
424.1406997835079,83.18015805947925,-932.7370481291424,0.4065,0.24
-541.8707237605864,-317.69998977315583,146.06064556949786,0.6277,0.4079
472.91759862493996,-457.31269032305397,188.25393758464952,0.6049,0.6819
890.1954048122448,-923.5588290511139,-80.4753472599416,0.258,0.4223
632.09057157902,111.72142929206507,571.5626031412883,0.5038,0.5557
-180.36449659047787,-419.06062416656573,439.12878277495065,0.6344,0.2623
492.71947032988805,135.24000700558167,-388.2820883605209,0.6295,0.41
733.2743603634876,73.89605764051407,-867.9637329035363,0.3426,0.5839
113.33855889889901,-13.8313101490819,-322.4237521701956,0.8025,0.5105
-794.5328001920391,32.29591700482638,-810.6401789117376,0.3444,0.4962
-866.4067039006926,-303.80474441347815,536.3299290091652,0.3861,0.8084
-356.59608028495995,-471.46896539689885,-284.9390023054128,0.6211,0.3453
370.8622159925437,892.0783246353051,349.0773039088492,0.4069,0.5654
-984.6803861501767,-800.7923138923059,452.0600022246274,0.2221,0.5481
-265.7846472080603,516.9325677477696,976.034672597058,0.3441,0.6513
-803.0455916592678,-945.2329798614574,55.00489184708658,0.2832,0.3381
-467.41458132753564,-270.0129200140491,-621.3833050325638,0.5248,0.6817
-853.6235920838458,-583.9258911742204,-72.73742280622503,0.4014,0.5064
409.7494511964185,-635.0904350651201,881.8851169092427,0.3294,0.786
-924.9582873842514,-950.7034543106263,-222.6661748650978,0.2235,0.8672
14.124536774392709,-723.834436319591,410.4312531877806,0.5195,0.4618
-435.33797781689043,942.081457435273,-941.672617926105,0.1909,0.2985
-402.11005568337987,-39.611254935329384,-928.7173373841408,0.4153,0.9699
-601.0086827415246,-28.291822802678325,376.2390046981527,0.5903,0.2793
526.9905711600904,-198.78078743394485,903.5697656672751,0.3853,0.9561
-547.7882209435026,794.7179116629525,-284.88866772448023,0.419,0.9424
119.20195188051912,771.7202821475471,649.6627658911634,0.4135,0.2506
618.1529024851959,412.2373924085555,829.1809283163841,0.3572,0.485
308.69718749953927,560.5571060197369,331.32805202844656,0.5839,0.3434
32.90698148480874,-475.0575444441582,826.4745387214598,0.4493,0.4308
855.8614429370164,126.98785885107304,-580.547695357567,0.3984,0.8486
-620.7025846703687,971.1247946517269,-423.25843782539937,0.2911,0.1056
-438.7578276234658,-629.7139086900338,479.33460193934843,0.4776,0.2005
707.0428921214097,-101.63017307621863,524.9108232975507,0.4882,0.4033
207.73309545944335,36.71507680556715,-994.9129479530785,0.4128,0.1436
49.707820549406506,-696.4570275587203,-725.3638063462573,0.4187,0.8989
290.75340202936604,608.5806728376017,599.4955840438693,0.479,0.8005
754.493769402781,-35.84532657954799,727.5712093617874,0.3945,0.2146
-673.6570803635549,-220.21244589415073,-231.14923055870668,0.5696,0.9965
896.7731516591282,307.9429199760855,209.58958665879345,0.4394,0.5427
-666.7795523771704,-241.57522376055124,658.0551144397409,0.4414,0.4323
-482.21462508404625,850.6039044416111,-830.7661036743685,0.2592,0.1367
37.9658163801048,765.1635600807458,804.383557778656,0.3587,0.817
35.78349808993494,785.7676940811984,603.9736431170006,0.4274,0.8518
407.5124746479494,369.55996596735895,703.4128873941838,0.4844,0.2246
824.9919342737596,966.4042641416738,405.78447892411464,0.2299,0.1882
384.5086537430045,201.78521434263598,740.9852176499508,0.5041,0.8233
-533.575506771617,-347.8957099297588,-448.63029218344025,0.5502,0.1036
300.6810214703835,-752.2841865220942,683.0479092738524,0.3882,0.3838
821.4811719445779,451.81441651780665,800.9940564512658,0.2881,0.3108
-597.8052464589782,242.69731176245978,31.100016623344573,0.6271,0.2153
-774.3939538030609,-973.7240131860599,369.5317710088673,0.2507,0.6832
-37.29425751420479,-607.4699425237213,271.8599855800892,0.6152,0.1609
-374.2481145157326,10.789080813137844,-323.70546121103655,0.7142,0.1491
-449.3499868893314,151.89369480594223,68.47499847204358,0.7233,0.1576
282.5779171109634,-26.943434156951866,198.26547799901073,0.8001,0.4401
978.5939875437609,871.1544906160088,-66.28665587621833,0.2426,0.5505
-220.08514084813658,946.2814475091259,-334.76520038975457,0.4067,0.187
-810.8863931083597,-516.4510798958675,-372.5267060535051,0.4047,0.936
-266.61972001564413,-316.19071664115086,-114.43363285816679,0.7522,0.2981
777.0743304576449,-253.3119386378122,-39.91309627333135,0.5276,0.2588
17.186332613062177,-573.5565376895688,189.43679540599942,0.6511,0.8893
-603.4170652689179,-860.8725596168507,999.7062520877039,0.1624,0.9497
979.3792997675107,256.8460591833805,-377.8529801872039,0.3761,0.3392
685.5971685009756,-617.6679667255289,-212.34090367275235,0.4533,0.3819
-589.7584056405092,449.966206115316,428.4197483396424,0.5054,0.7301
175.10124010005393,-198.032058931797,-377.5576362832169,0.7339,0.7884
552.4411747817949,575.160587313605,-241.9903274503688,0.5188,0.8152
942.1213386540728,-346.53341475537536,467.76468916424506,0.3606,0.5386
998.2117012338845,728.2308333425435,-710.0174754628816,0.1772,0.5516
-255.74702204421305,-277.2625207686376,-544.0420969207316,0.6178,0.8052
-472.9672213833935,460.0078098106185,784.786403159158,0.4081,0.9753
968.4908054943598,-774.117827541233,-548.9029832268519,0.2172,0.2248
-750.2962411486071,848.0348399531138,-215.10625104071596,0.3346,0.4534
184.47506498738312,-357.1513192155047,-918.333733779556,0.4212,0.1401
-858.6502502481812,715.5642810420668,-871.4202299006453,0.1817,0.4579
-998.4914945211572,-563.2631180724904,410.5798197498316,0.297,0.646
-191.91461979940948,-14.188721453376957,-617.593488169846,0.6265,0.7202
-17.028657716620273,-545.573224991079,-818.247896844817,0.4321,0.9053
-98.35282412430126,505.6693647090767,71.35138482061939,0.6997,0.6933
-280.0787582265905,272.0870603558101,9.736422905516406,0.7745,0.6126
962.5533710550253,-364.9771823918537,189.16790972692434,0.3957,0.4972
198.6966679874156,213.46590804502102,-423.7322345863414,0.703,0.4797
-345.98472577590655,34.21002240145776,-469.6966046174857,0.6626,0.9642
550.1667272478601,-385.14071947139405,252.9343644788844,0.5857,0.542
785.2516460570198,-388.07084479066225,767.0658990393417,0.3278,0.8747
-567.0085002347922,532.240627048727,698.1509999114087,0.3966,0.6498
892.6964860225221,253.7507875937706,109.21883080571297,0.4605,0.8508
-787.2892079037617,-173.3794698896229,-579.5542884306561,0.4268,0.5234
554.1221427587825,-139.23518699893816,26.428589796858205,0.6698,0.2524
320.2672650725874,-900.977430818342,724.0646461093925,0.3075,0.9209
-200.6919189024377,168.67889157700165,-835.0121587002443,0.4947,0.829
-839.5052736615985,354.0015655933669,904.2505728005424,0.2589,0.9351
338.3970105636163,-535.8843738530875,357.3137181922682,0.5799,0.8769
15.76505590479087,689.75477250879,-868.4271519069939,0.3596,0.2155
594.9116858618747,924.9650987711166,-135.13217165234346,0.3603,0.8143
375.370503697294,90.74468978875984,-241.86571899207593,0.7369,0.6396
954.5174330037796,-545.8998621324274,390.90395850603227,0.3262,0.9311
-453.4967494814199,-330.81317016481,-312.300737279646,0.6291,0.7136
985.5428518073647,-880.5387236483438,362.73152989707614,0.2088,0.1564
-709.0632255701756,-355.90977114823863,-637.2443810550799,0.4125,0.5082
87.65153119511433,447.72053900864944,18.604071385740667,0.7364,0.4411
800.5772708894958,505.35039404600684,-258.70101622455445,0.4334,0.9409
-601.5221018195218,-25.72383889335765,962.4146110788013,0.3446,0.6562
150.59936731035577,-626.666761858424,578.4577085433066,0.5,0.897
520.392921578695,-890.0104232967323,859.2071735518462,0.2252,0.9464
-493.2112154334669,-80.60938677501997,-177.9359030289811,0.6937,0.9942
756.0727297959409,846.6816493333117,261.84505624771896,0.3274,0.5995
753.4342385307561,885.0169376347822,281.7110686131673,0.3095,0.1952
-966.6556208467294,-918.8835332842316,-7.025947054266453,0.23,0.335
-959.0481644846665,756.7511033532414,45.53718638787541,0.2942,0.7854
-345.0165288375308,5.645432573959852,-905.9652907925997,0.4403,0.8639
-558.1806425601841,260.5690904806049,-402.26826048070996,0.5752,0.5391
169.59347513075795,-375.78477973902284,-364.68662653248134,0.6822,0.2055
-585.2429906090466,-609.6747145680732,-881.7001587382858,0.2949,0.4536
695.1795328112926,-592.7779630482221,-579.2620624224608,0.3754,0.551
-321.7024829461899,-260.43349266467476,-800.5565077517338,0.4797,0.1878
886.9660563383816,-786.281085955889,329.83336605349064,0.2897,0.1903
521.6434958289567,-119.31235617484947,-31.867559305356735,0.6905,0.4225
499.41568522104035,-276.8349427829604,374.3636942536068,0.6058,0.5519
-669.1360933423178,-317.20681140665147,-996.6573183194578,0.2831,0.9364
339.64954922165043,-65.10747550470694,-483.10728931082485,0.657,0.3323
-795.4503533010993,86.71083227232612,37.27831018417328,0.5375,0.6363
-567.8407945776238,757.0550296027955,360.6759720652408,0.4153,0.7374
-36.09987666936877,-768.923403503736,-519.5369000289502,0.4638,0.4593
-336.13072172822854,-288.9187178639678,586.1997869042063,0.5757,0.5178
269.5806282261419,65.43148935815384,-582.4706776187121,0.6275,0.7651
-123.32788638127363,-531.1729005943333,-661.3392098266653,0.5051,0.1067
-341.016688344866,-45.102587183306355,582.8166721701903,0.6093,0.6777
-279.38804201306505,634.9507340943319,521.8629872551157,0.4988,0.4125
-766.7140352407546,-770.9355475339139,-799.7394222915382,0.2207,0.2011
125.06476170929045,756.0619299028649,666.5215625744001,0.4136,0.3771
-577.7882499215841,542.7380370801147,-915.7540646386273,0.3007,0.773
-36.55001135648922,-129.81924588958566,-383.6061260483003,0.7652,0.5108
-311.098159990137,-41.71727606178456,443.7576502174986,0.6862,0.6296
-970.4882141838102,-259.03062132630134,24.901586721496187,0.4199,0.9361
384.18950121835246,-528.8894577778358,-783.2886385273672,0.411,0.804
-366.912164494805,189.8833259594635,-269.51819440079134,0.7152,0.564
570.6006717342989,-594.4950934631092,271.03067483154473,0.4992,0.1159
-392.78460332545785,557.9674381364691,995.5066085527021,0.3032,0.4613
-885.7649475846831,547.3971375582996,-862.3098450559901,0.2194,0.8479
124.48759030231417,-726.3434395043926,-502.64211689685425,0.485,0.6909
-165.8938907963352,829.8433925794518,616.9913134421158,0.3953,0.3703
-780.3409230820506,14.119823997978074,-42.251344262146404,0.5487,0.4361
341.5630231295165,639.2359341855647,-330.1831497829986,0.5402,0.9112
452.25042507752596,29.63971963980248,-273.97092876974045,0.6942,0.9898
94.75511103702752,-971.6835690312653,255.50582727235474,0.4174,0.7307
357.2334498729613,305.1856345156998,-280.89399019813493,0.684,0.9546
481.0322658438329,-290.05418872795974,-874.2331832126862,0.4001,0.7695
-828.620152297669,156.38534094599981,455.16473549220905,0.4468,0.1459
-422.7396783275899,-410.6124684122565,538.1860995314785,0.5392,0.1303
395.62563740073733,608.1910445276044,4.878336791074048,0.5811,0.501
-939.0561429985629,308.18925729480543,-607.0847394973844,0.3303,0.7111
277.5634070087426,245.2338269264635,989.8515319795658,0.3898,0.7333
455.52203890150463,-547.998324986954,516.6061515758381,0.4918,0.1429
285.7819686965654,688.2829073682371,289.7872664894662,0.5383,0.6522
-950.2510022754185,141.1809378861292,359.50419244241607,0.4078,0.8306
167.4812939453468,-36.001819747506715,661.026372422963,0.6057,0.3882
179.574802428599,-397.47541750822916,955.5592345408813,0.3936,0.4995
963.6900515461191,594.7261608816532,-684.1654116399159,0.2361,0.3432
656.6926640106983,166.0182148033407,-313.33592791978094,0.5691,0.6934
563.5183849790878,645.5960587626394,-923.0209617959382,0.2728,0.8538
977.4287043574402,-445.83531091633483,524.4593279614003,0.3098,0.6398
-435.6297537454428,717.3225466906622,170.98768922085378,0.5055,0.2948
-828.9487700970268,678.156801925988,880.4496941936518,0.1995,0.8364
22.581732288574585,6.224576412309034,-818.4471718682163,0.5273,0.3613
-282.0445955967266,822.9671781295231,-802.433945743702,0.3167,0.7659
-32.12192516555308,-371.20612815844595,-714.2762315186715,0.5349,0.3884
-659.3568525558164,-209.84108320930363,856.5007387959638,0.3643,0.6911
926.4745868082725,482.10381426897766,883.9199082622549,0.21,0.3793
-638.6278515382535,-144.9794050389877,430.9262842942371,0.5474,0.4999
-687.337304104352,-105.677997960065,-456.09117871844717,0.5199,0.5206
-895.461362095571,397.48354326608114,827.5758855682427,0.2596,0.9717
929.0786300806642,2.3511347029103717,-924.4204497750275,0.2433,0.5139
658.739889344505,-434.33401931501135,318.07464734218956,0.5088,0.8924
-408.94184842847926,484.0478879346799,801.8807768715371,0.4099,0.3138
-264.367149355184,592.4747790458509,-27.082585521814394,0.6251,0.8667
510.717643904183,370.03941659269435,-207.59533562017873,0.6167,0.7095
