X,Y,Z,Normalized Luminosity,Normalized Radius
556.34705,-1588.75324,-93.63500,0.01625,0.41848
1820.96441,-5022.98031,51.62804,0.00461,0.11858
2336.51706,-6441.48604,105.46754,0.01424,0.02482
943.86415,-2600.51779,-40.80136,0.02124,0.22511
1369.66636,-3912.50855,-25.86243,0.02861,0.06679
1192.10013,-3404.55426,-40.43888,0.00198,0.08466
1979.32675,-5653.58659,26.15440,0.00136,0.08252
1595.05164,-4555.19927,-6.06362,0.00192,0.04301
907.62947,-2593.10248,-64.02224,0.00307,0.11083
434.82526,-1241.73521,-103.89240,0.03534,0.33252
2737.27575,-7823.80710,90.17204,0.02155,0.04169
467.10162,-1330.63192,-102.13533,0.00274,0.45882
1535.77682,-4376.45181,-13.29643,0.00496,0.11120
1483.29783,-4227.65712,-17.22885,0.00968,0.10688
4455.36718,-12290.45952,330.34130,0.00116,0.02977
775.29379,-2133.89764,-58.13875,0.04585,0.21388
2319.48540,-6392.37663,104.83629,0.02322,0.07540
443.30909,-1218.30431,-93.03093,0.05435,0.59985
4187.54865,-11538.24126,302.07570,0.01196,0.03156
1937.84620,-5341.82092,65.06714,0.00554,0.07176
553.79621,-1577.37126,-94.65320,0.00276,0.36102
885.68213,-2523.75662,-66.91599,0.05125,0.24966
523.15092,-1490.48829,-97.45442,0.00471,0.51677
928.65605,-2644.74816,-63.87162,0.00164,0.20579
1275.21497,-3632.45109,-34.80608,0.01684,0.13274
445.83432,-1269.33012,-103.73281,0.00430,0.48086
2115.48371,-5830.47943,83.04664,0.00768,0.06976
1576.47776,-4491.82648,-10.12573,0.00379,0.11646
1008.45440,-2873.00170,-57.15222,0.00230,0.12003
1705.02280,-4857.63688,1.19201,0.01334,0.04339
763.75081,-2176.93006,-77.24889,0.07316,0.16663
2043.01973,-5818.51991,29.52416,0.00215,0.08778
1618.32837,-4610.15429,-5.75675,0.08655,0.12272
5183.03022,-14759.17120,291.96972,0.00655,0.02354
1761.80307,-5016.90617,6.27109,0.00596,0.05566
1220.47390,-3474.45817,-38.48528,0.00145,0.18221
1385.93018,-3947.34692,-24.79380,0.02336,0.09789
3423.61985,-9789.55337,147.06437,0.00318,0.01140
556.46332,-1589.15609,-94.06372,0.01001,0.14251
5324.80678,-15208.05174,306.64982,0.00155,0.01550
4969.72001,-14195.76187,276.77339,0.00376,0.01212
445.01830,-1270.38746,-103.35721,0.05925,0.66258
638.26557,-1823.05259,-86.95714,0.01844,0.33405
7541.66956,-20789.34593,657.43467,0.06399,0.01027
139.80474,-380.76568,-125.04145,0.01609,0.12782
1705.24402,-4698.43117,40.96704,0.00858,0.05753
1248.94473,-3438.48967,-8.06829,0.09516,0.19618
1231.96371,-3388.77953,-10.34964,0.00327,0.10959
633.25667,-1739.74556,-73.29528,0.00543,0.41398
5541.02041,-15263.93859,443.74204,0.01219,0.02324
5271.93749,-14516.19415,416.50494,0.00221,0.00597
3253.26838,-8958.27170,203.69025,0.01998,0.02163
653.09285,-1794.92629,-70.85009,0.00395,0.37961
330.13188,-904.03596,-105.06248,0.00593,0.84666
313.88807,-859.77390,-106.66812,0.00142,0.75900
1746.36799,-4806.16351,44.26274,0.00405,0.07814
1312.67423,-3612.13285,-1.25679,0.01049,0.12342
1987.17104,-5464.72267,70.03834,0.00715,0.05603
333.06912,-912.16392,-104.63576,0.00127,0.88536
1011.21837,-2778.53871,-32.82918,0.00115,0.24618
1540.06290,-4235.29125,23.17716,0.01496,0.13441
3522.24844,-9696.95689,233.23971,0.00132,0.04879
1264.46647,-3475.67367,-5.84723,0.00130,0.10651
1347.78572,-3705.35736,2.90295,0.09447,0.15265
506.56658,-1389.48610,-85.99714,0.04103,0.45700
1296.51635,-3564.44065,-1.94015,0.00119,0.12731
690.85824,-1966.30988,-83.31791,0.08899,0.29140
1152.87522,-3281.38322,-44.72199,0.00357,0.10765
1619.63337,-4611.23884,-5.83307,0.01071,0.06992
767.72646,-2184.95899,-76.73577,0.00812,0.13806
955.78051,-2720.87567,-60.78388,0.04595,0.12409
877.45555,-2498.69152,-67.40500,0.00135,0.10704
1738.60469,-4956.70949,4.07566,0.00120,0.08083
837.72278,-2387.37351,-70.90378,0.00159,0.19990
2783.25226,-7935.40917,91.50901,0.04466,0.05525
844.09556,-2405.71863,-70.22636,0.01975,0.19846
3786.33096,-10797.13778,175.99616,0.01843,0.03772
2163.19912,-6165.76753,40.30446,0.00423,0.07329
792.03447,-2257.26911,-74.32383,0.00766,0.23407
4511.11494,-12409.19310,337.62770,0.00334,0.01937
1628.28182,-4476.65224,32.90295,0.00115,0.15525
827.02196,-2272.11615,-52.11671,0.01893,0.19168
441.03099,-1209.52782,-93.03633,0.01605,0.43622
468.15511,-1333.85906,-101.57122,0.00666,0.59730
1784.92043,-5087.63131,8.90956,0.00193,0.08521
816.48965,-2326.73768,-72.33676,0.00809,0.25765
437.69533,-1247.25277,-104.35512,0.00879,0.51876
1099.33231,-3134.38595,-49.07739,0.07022,0.16105
683.14122,-1947.61181,-83.71493,0.00839,0.30673
1788.68406,-4925.12877,49.64456,0.03413,0.09039
1330.01397,-3659.40759,1.13971,0.00861,0.16550
487.80012,-1339.51401,-88.10538,0.00447,0.46433
635.08973,-1745.76841,-72.45031,0.01881,0.33839
853.50222,-2348.41952,-49.15155,0.01259,0.15293
3035.15946,-8365.15956,181.69581,0.01370,0.06071
1649.80179,-4541.56130,34.94685,0.00116,0.09940
4424.28212,-12608.28957,228.91123,0.00429,0.01407
2293.89493,-6541.53287,50.73044,0.02106,0.04048
690.57701,-1968.78575,-82.80074,0.00237,0.12090
999.85183,-2850.66400,-56.76454,0.02045,0.09556
542.04644,-1489.12509,-82.17208,0.00116,0.42850
3418.67184,-9423.08366,222.47916,0.00175,0.06427
358.58969,-1020.97921,-110.69277,0.00333,0.65772
1091.73671,-3111.97580,-48.91994,0.02453,0.16752
1793.68245,-5110.55847,10.14006,0.00136,0.07141
1078.01182,-3071.67365,-50.02953,0.00624,0.15582
343.89578,-979.25724,-111.74674,0.02187,0.51826
1015.69695,-2894.43505,-55.64955,0.08576,0.16018
615.71644,-1692.20747,-74.79278,0.08659,0.24962
351.85388,-1001.39547,-111.17446,0.00454,0.31076
1861.79957,-5305.06581,15.37428,0.02329,0.03646
1718.63085,-4732.78145,42.92020,0.09247,0.04714
2386.43448,-6573.42794,114.03407,0.01128,0.02274
1458.37275,-4015.12654,15.46141,0.03689,0.05021
890.14855,-2447.11300,-45.33998,0.00449,0.20395
808.77115,-2222.75005,-53.83225,0.00936,0.30579
309.66949,-847.86503,-106.85493,0.08029,0.80984
438.25236,-1202.00095,-93.10254,0.03843,0.77336
1668.64994,-4753.00723,-0.31380,0.01976,0.06324
2619.24428,-7464.28829,79.51005,0.00225,0.03491
1446.71257,-4123.32753,-19.06002,0.00564,0.08641
1234.86289,-3519.79260,-36.72035,0.00134,0.09720
156.94258,-445.65359,-127.64475,0.00245,0.20317
2416.22292,-6877.30613,61.71384,0.00115,0.05931
1414.02648,-4022.12045,-22.09555,0.02372,0.12063
1592.22594,-4531.08074,-6.28888,0.01120,0.11778
694.50657,-1976.52518,-82.26227,0.06207,0.31830
957.19734,-2630.73473,-38.04314,0.00199,0.16608
1233.47264,-3393.19653,-8.74481,0.01388,0.06146
482.04567,-1323.00840,-88.41233,0.01227,0.43500
836.73101,-2299.86206,-50.44380,0.00464,0.06624
416.69349,-1143.59099,-95.46460,0.01283,0.22425
595.24951,-1635.27646,-76.35066,0.01295,0.16857
381.71334,-1085.79730,-108.97876,0.01300,0.57771
784.44677,-2231.41482,-74.68599,0.04079,0.31584
1578.35117,-4493.21353,-8.35279,0.01112,0.10207
1853.94694,-5276.88049,15.49585,0.00199,0.05845
993.12345,-2824.81753,-57.58877,0.00407,0.14552
1477.22919,-4203.30428,-17.21767,0.00180,0.06288
1582.03923,-4501.93462,-8.27712,0.00335,0.12289
925.44133,-2632.39983,-63.11006,0.01958,0.19822
1025.89258,-2813.65148,-31.59781,0.02722,0.13902
1123.93707,-3083.66458,-21.40872,0.02129,0.22824
436.86171,-1242.63770,-104.22429,0.01063,0.25253
2589.85377,-7368.75430,76.86648,0.00435,0.03209
670.68446,-1908.91651,-84.33696,0.00215,0.22248
1335.21061,-3797.11896,-28.31618,0.00546,0.09415
993.49795,-2824.89835,-57.03554,0.00789,0.13632
802.89663,-2282.39968,-72.98197,0.08687,0.13578
4410.94365,-12541.16864,232.02281,0.00278,0.02173
780.54152,-2219.04104,-74.76449,0.00731,0.16233
1275.56028,-3627.60620,-33.37792,0.00116,0.12034
1662.92367,-4563.41944,34.87379,0.00614,0.11353
213.08823,-580.25658,-117.46677,0.03267,0.73579
1626.64601,-4464.31032,31.34954,0.01600,0.09294
2314.38578,-6354.37812,104.31503,0.00402,0.02873
2389.31816,-6561.48191,112.09302,0.07135,0.01602
1448.84418,-3974.99518,12.96537,0.00384,0.15946
1400.34996,-3842.17296,7.94190,0.07915,0.06072
2016.75634,-5533.93257,73.21180,0.03825,0.05865
1618.85164,-4603.47611,-4.55582,0.01353,0.10823
1669.47382,-4747.76518,-0.26070,0.02784,0.06999
581.90359,-1592.57979,-78.20025,0.00520,0.28923
893.02688,-2538.67032,-65.17089,0.00352,0.22407
2334.10940,-6640.96486,55.97120,0.01276,0.06939
1041.81021,-2963.40899,-52.64080,0.00551,0.17219
2751.35730,-7827.40223,92.05269,0.00550,0.05539
477.57374,-1310.98994,-88.80339,0.01762,0.19440
527.27730,-1443.81601,-84.38224,0.01232,0.35094
803.06417,-2201.42535,-55.25654,0.01337,0.16164
2080.54239,-5709.94877,79.27962,0.06989,0.02774
992.91600,-2722.01126,-35.23843,0.00202,0.12160
3160.02818,-8675.62424,194.75981,0.00115,0.02445
382.76362,-1047.40281,-99.52060,0.03313,0.76274
760.53687,-2086.38357,-59.39468,0.00671,0.35250
1008.67666,-2769.55273,-33.10872,0.01379,0.14126
768.44091,-2107.00309,-58.49995,0.01935,0.32924
430.56428,-1179.31035,-94.21838,0.00143,0.64953
1253.47879,-3441.50089,-7.29589,0.02130,0.10048
602.73953,-1652.32904,-76.12936,0.00834,0.42747
604.09212,-1656.12602,-75.68191,0.00555,0.43825
480.25822,-1315.74032,-89.14242,0.03910,0.57647
1417.01850,-4027.53132,-21.08944,0.00505,0.08847
2356.73158,-6704.03871,58.57931,0.00184,0.04036
982.63819,-2696.75986,-36.07449,0.00145,0.19327
786.41611,-2157.39800,-56.57861,0.00756,0.11660
753.56338,-2068.25308,-60.07954,0.00383,0.15946
577.56905,-1582.38763,-78.59953,0.00355,0.52786
2387.61945,-6558.40739,113.33221,0.00581,0.09801
912.73017,-2502.74859,-42.56777,0.00435,0.26484
1655.49908,-4544.70148,36.59488,0.04801,0.07781
5549.18347,-15797.01341,327.95197,0.01946,0.02820
959.22255,-2729.53328,-59.68152,0.00281,0.20274
580.70841,-1590.94417,-78.11701,0.01483,0.48224
553.90818,-1516.75312,-80.88988,0.00250,0.16027
467.40380,-1279.48749,-90.00763,0.00116,0.26287
316.97668,-865.88329,-106.17272,0.04844,0.49814
3593.80670,-9873.03210,241.98173,0.05992,0.04538
912.29244,-2498.47704,-43.27344,0.02208,0.24344
1524.60141,-4178.33252,21.86932,0.00266,0.11418
709.81859,-1943.50688,-64.32946,0.01234,0.35461
589.87844,-1612.87434,-77.25888,0.00165,0.52248
4312.00618,-11830.51364,316.81756,0.01449,0.04028
1218.26930,-3336.38749,-10.48222,0.03147,0.20080
1584.23791,-4342.00379,28.75297,0.01344,0.14403
710.88048,-2024.19616,-80.70040,0.03058,0.24889
540.19496,-1537.13271,-94.99229,0.01089,0.32750
549.01887,-1499.97196,-81.33651,0.00816,0.47284
3291.56544,-9022.81584,211.13234,0.05001,0.04584
1556.44528,-4432.69807,-9.18734,0.04926,0.11542
413.57464,-1128.88891,-95.81088,0.08429,0.37599
693.60089,-1897.11986,-65.83378,0.00555,0.29762
818.18042,-2241.99354,-52.66070,0.00221,0.27566
1485.91749,-4075.29958,18.37264,0.00116,0.15141
684.05494,-1873.39396,-67.00287,0.01570,0.22794
351.65603,-960.95145,-102.25286,0.01133,0.80130
1249.95962,-3428.41574,-6.09383,0.02204,0.20056
583.02126,-1596.24600,-77.64817,0.05712,0.38863
619.35769,-1695.38669,-73.63313,0.00321,0.31895
680.70865,-1864.90038,-67.34070,0.02116,0.39188
709.86294,-2020.37764,-80.94280,0.00529,0.16186
1257.62286,-3580.31166,-34.65355,0.00137,0.07341
1175.75016,-3347.70035,-41.59955,0.01790,0.04780
1062.67533,-3026.16273,-51.08620,0.05757,0.18101
3831.68931,-10914.67832,182.42599,0.04401,0.01822
1190.08955,-3388.37368,-40.11436,0.07249,0.04524
2032.65848,-5575.43768,76.76669,0.01584,0.04248
628.30846,-1720.79936,-72.99684,0.00167,0.14961
1730.12386,-4748.74446,44.79503,0.01897,0.04319
833.17147,-2281.25720,-50.76747,0.00637,0.28241
863.90962,-2366.65814,-47.13032,0.03460,0.28713
1007.15379,-2758.35973,-31.79355,0.05639,0.23126
475.71614,-1354.12267,-100.57269,0.00160,0.30110
1539.45363,-4383.74571,-10.61636,0.01079,0.03965
544.61173,-1550.05124,-94.64050,0.00656,0.28646
1662.54497,-4734.00421,0.15244,0.03099,0.04118
3007.04755,-8566.12040,113.85645,0.05850,0.02901
1008.17314,-2868.76062,-55.35003,0.06544,0.20955
3349.25234,-9530.36611,143.04839,0.00198,0.02700
530.05399,-1507.04788,-95.67610,0.00647,0.36952
1880.92713,-5351.16343,19.42195,0.09773,0.09804
777.79949,-2212.68874,-74.38913,0.00115,0.24986
557.87099,-1586.41322,-93.41041,0.03517,0.35782
603.37018,-1655.14812,-75.77567,0.02521,0.25936
2505.67466,-6887.86725,126.30357,0.00723,0.08118
1084.87317,-2978.65169,-24.61180,0.03528,0.15068
514.63128,-1410.21591,-85.11187,0.01656,0.54560
830.97668,-2280.54373,-51.38270,0.01061,0.31961
2793.26510,-7680.58941,158.07387,0.04967,0.02103
674.93390,-1852.08553,-67.88721,0.04138,0.34199
274.53212,-780.27151,-117.40142,0.04089,0.99956
1600.46243,-4400.93948,30.34699,0.02703,0.04761
1066.63218,-2929.00017,-26.30792,0.00110,0.19063
745.59203,-2044.88579,-60.32709,0.00463,0.30423
7506.51982,-20634.76842,659.91669,0.00653,0.01868
3463.27797,-9522.78507,229.90763,0.01388,0.01865
1133.91009,-3114.00057,-18.72394,0.00142,0.15921
2402.85318,-6602.93717,117.16971,0.00632,0.08484
2330.34416,-6404.55355,109.49328,0.00293,0.07569
1046.13662,-2977.76283,-51.96251,0.03416,0.18473
822.19059,-2255.06946,-52.01543,0.00258,0.20917
7301.92362,-20072.93982,641.79253,0.02472,0.00824
567.30966,-1613.69975,-92.25137,0.02304,0.51900
1620.60792,-4609.30631,-3.11087,0.01587,0.07453
723.15131,-2057.13209,-79.40920,0.06509,0.19610
737.07002,-2096.70214,-78.05059,0.00220,0.15094
677.28949,-1927.40169,-83.32033,0.04552,0.18863
1971.20735,-5610.09234,26.68877,0.00241,0.07367
984.88568,-2803.03539,-57.11398,0.00172,0.09991
522.02563,-1485.60064,-96.41885,0.01471,0.34773
2732.84635,-7778.53821,92.02828,0.00180,0.04791
2447.41849,-6965.40500,68.16356,0.05851,0.03619
1063.46729,-2917.65315,-26.34216,0.00419,0.16097
457.47491,-1304.96895,-102.36465,0.02661,0.51092
744.07836,-2040.41923,-60.30199,0.00115,0.23324
1068.53394,-3048.89934,-50.93370,0.00116,0.09445
876.08328,-2498.40104,-67.17430,0.05271,0.18603
1375.94170,-3925.82365,-24.68426,0.04519,0.10703
611.67407,-1744.99357,-89.17686,0.00283,0.32749
2329.08060,-6643.40221,55.76193,0.01169,0.08342
761.56594,-2172.60524,-76.41192,0.07435,0.22113
1039.64592,-2965.92990,-52.98822,0.02616,0.16923
5077.80641,-14488.97207,288.21340,0.00162,0.01653
877.76451,-2503.88212,-67.15458,0.03336,0.22180
825.98208,-2356.03375,-71.37973,0.02612,0.24392
796.55345,-2184.88530,-54.67919,0.00115,0.16107
1405.62302,-3859.68203,10.50467,0.00316,0.05764
621.68941,-1704.61570,-73.40615,0.01305,0.22425
3005.23233,-8574.13721,111.57809,0.03013,0.02208
363.21110,-1035.85965,-110.28695,0.00126,0.59035
477.92228,-1363.36456,-100.66598,0.00146,0.42351
1112.75801,-3174.32379,-47.06735,0.01289,0.06793
1119.09845,-3190.96651,-46.40912,0.00320,0.15475
528.11683,-1505.27185,-95.98616,0.00311,0.40202
13826.88903,-39437.81632,1031.64929,0.01401,0.00331
1425.44584,-4064.64796,-19.76265,0.02200,0.08446
1008.10132,-2873.77904,-55.08643,0.00121,0.14118
738.65495,-2104.54005,-78.21354,0.05654,0.18951
1044.48102,-2976.39653,-52.34866,0.00441,0.17824
4821.32273,-13257.30037,375.94579,0.02557,0.02330
459.34668,-1258.10499,-90.78961,0.00115,0.12716
781.93717,-2145.76045,-56.36134,0.01880,0.28198
12009.33351,-33056.48077,1139.51767,0.02634,0.00764
880.70570,-2419.57753,-45.65997,0.00363,0.25477
1056.65115,-2903.21743,-26.81951,0.01046,0.21521
2007.43627,-5521.62036,75.51860,0.05656,0.10739
619.50873,-1765.54046,-88.11259,0.00220,0.33809
1261.77824,-3596.38606,-34.12020,0.00221,0.12454
408.32881,-1162.99452,-106.16836,0.01199,0.63767
2341.58771,-6677.21587,56.80711,0.08595,0.04150
1664.59778,-4745.76384,-0.06691,0.02665,0.05082
1110.58071,-3165.30984,-46.67430,0.01030,0.17395
8682.83856,-24763.54606,592.76333,0.01806,0.00794
561.94591,-1602.09796,-93.25760,0.00697,0.21568
651.97037,-1858.76013,-85.58245,0.04528,0.12147
2339.55465,-6669.90022,57.84174,0.00309,0.03065
1117.30601,-3071.26330,-19.92448,0.02344,0.21105
3953.73249,-11286.57606,193.31213,0.01368,0.02310
1290.99608,-3686.05101,-31.59457,0.00137,0.14269
3935.56957,-11238.87119,192.44138,0.02001,0.03343
692.13324,-1975.51762,-82.12817,0.02447,0.29630
546.90248,-1561.71617,-94.38192,0.00116,0.28135
1829.40211,-5224.26018,13.94312,0.02199,0.09664
1804.21791,-5151.45421,12.77864,0.00587,0.07964
796.32604,-2187.11726,-54.59416,0.03691,0.20688
866.79546,-2382.72138,-47.14568,0.00150,0.26573
3145.57235,-8656.89946,197.36746,0.01299,0.03704
623.36628,-1710.55239,-73.26529,0.06850,0.22260
480.71939,-1318.25686,-88.33332,0.00420,0.28477
1167.49486,-3210.14919,-14.71781,0.00113,0.15285
844.08437,-2317.52443,-49.37340,0.01265,0.17644
536.10130,-1529.89042,-95.54627,0.00115,0.37740
901.10331,-2473.33036,-43.08102,0.06639,0.19007
583.10584,-1598.75105,-77.24699,0.00117,0.44190
1117.06750,-3068.87109,-19.57040,0.00619,0.19458
1346.81662,-3699.48769,4.70493,0.01129,0.17175
726.89842,-1995.14413,-61.83024,0.02525,0.32005
1632.21917,-4660.94675,-2.40116,0.01446,0.10685
784.00152,-2239.04998,-74.30262,0.00138,0.23094
1169.27308,-3211.82779,-14.42262,0.03620,0.07224
826.54415,-2269.24144,-50.96323,0.02668,0.11324
1712.46214,-4706.55807,44.47332,0.00118,0.04962
1701.83275,-4678.28733,43.06210,0.02139,0.04476
1239.17497,-3405.46756,-6.46884,0.01432,0.12727
373.73900,-1023.67076,-99.74040,0.00422,0.35767
1007.35439,-2763.66834,-32.18605,0.04137,0.24741
728.67131,-1998.14069,-61.80347,0.00789,0.36619
1015.14175,-2786.15928,-30.96798,0.01105,0.13871
1543.61364,-4235.40230,25.63109,0.00228,0.08833
2413.57126,-6625.78407,119.32559,0.00325,0.06475
694.50368,-1903.41922,-65.14661,0.01139,0.26735
583.71409,-1599.15361,-77.33254,0.00120,0.34528
156.28087,-424.39826,-123.05376,0.02982,0.21359
2419.05433,-6908.90897,63.95252,0.02661,0.02261
300.48632,-857.56788,-115.26274,0.00187,0.93155
382.40796,-1091.67972,-108.31420,0.01370,0.59988
240.70085,-686.91998,-120.28577,0.00155,0.37813
1137.67083,-3245.59410,-44.18019,0.00946,0.17266
6434.49801,-18356.75041,405.96418,0.00164,0.01420
3775.92153,-10775.97713,181.00420,0.03450,0.03190
428.28855,-1221.24261,-104.08898,0.04868,0.64668
443.87249,-1265.20083,-102.94734,0.00450,0.72234
2431.54230,-6938.22900,65.68117,0.00413,0.06841
1751.54014,-4806.46575,47.71892,0.00114,0.03250
1653.18641,-4537.25115,37.05242,0.02354,0.07200
4986.00914,-13692.87270,394.91107,0.02201,0.01884
752.70156,-2062.92112,-59.03213,0.00183,0.29620
1790.58022,-4916.32854,51.67887,0.03769,0.05439
588.62826,-1612.30235,-76.59993,0.06809,0.18571
1096.23052,-3007.96785,-22.48557,0.01026,0.09526
420.74754,-1151.40323,-94.55105,0.02173,0.23305
1052.39520,-2884.89865,-26.94780,0.06035,0.17636
497.94645,-1362.53679,-86.32637,0.01836,0.27995
369.34594,-1009.39616,-100.10912,0.05558,0.66431
806.59692,-2210.08414,-52.91382,0.01294,0.23748
440.26650,-1203.57936,-92.43233,0.00897,0.32691
989.56123,-2711.37249,-33.43721,0.03383,0.25978
10467.12186,-28735.18895,984.24264,0.00576,0.00122
1173.65257,-3346.65360,-40.65941,0.02607,0.14809
791.51522,-2258.07378,-73.24485,0.00461,0.22906
940.04132,-2576.76937,-38.85806,0.00106,0.25281
2483.13381,-6813.85431,128.20983,0.01822,0.08249
1316.48778,-3755.69111,-29.19610,0.00415,0.07029
5411.82843,-15433.57114,320.46988,0.00300,0.00862
567.29003,-1618.05213,-92.36821,0.00901,0.10502
180.73927,-515.29350,-125.36201,0.01043,0.92302
1013.54502,-2892.91780,-54.41430,0.01672,0.13613
922.18294,-2626.68709,-62.57260,0.03318,0.09474
553.00060,-1575.59011,-93.75886,0.01438,0.41249
4967.66073,-14155.69093,281.69433,0.00646,0.02999
730.93169,-2082.07909,-78.47528,0.00277,0.30695
950.29355,-2706.95839,-59.68990,0.03340,0.20200
1129.87907,-3220.59833,-44.59583,0.00114,0.12003
1448.96282,-4128.68305,-17.22152,0.05188,0.06961
1384.52802,-3800.26769,9.40313,0.09631,0.10804
483.77889,-1377.51166,-99.49743,0.00169,0.61177
516.14310,-1469.46122,-96.79237,0.02023,0.46147
762.99673,-2093.52568,-57.37218,0.01196,0.33597
898.17494,-2464.46658,-42.67187,0.01886,0.27180
1597.96907,-4389.57206,32.94485,0.01213,0.14595
1818.12734,-5178.88942,13.59929,0.00126,0.04629
4601.25165,-13108.48854,250.42005,0.00164,0.02029
2173.88232,-6194.96927,43.71006,0.00116,0.06229
867.49087,-2470.72358,-66.86836,0.01030,0.12603
2751.27169,-7840.61793,92.89522,0.09740,0.04572
666.42688,-1898.31658,-83.91477,0.00298,0.23008
1446.18991,-4121.10145,-17.44013,0.00221,0.05155
1221.70606,-3480.88293,-36.21548,0.00444,0.10343
443.73433,-1215.23249,-92.03604,0.00143,0.20695
513.49842,-1405.66466,-84.35279,0.02834,0.16282
720.67787,-1975.52818,-61.91458,0.00317,0.37274
1771.82125,-4865.65994,51.83386,0.03602,0.10875
781.54925,-2143.55705,-55.23785,0.00838,0.28832
2912.74744,-8292.97996,107.63699,0.06482,0.04444
1170.11660,-3332.51370,-40.31901,0.01330,0.12555
1518.26759,-4322.78983,-10.49326,0.06387,0.09842
2853.26915,-8125.60894,103.09849,0.01398,0.05916
1084.79352,-3087.81343,-47.72013,0.02480,0.17672
1534.92626,-4213.35892,26.24241,0.08998,0.11535
1022.93674,-2804.68813,-29.16576,0.01787,0.16887
685.52753,-1878.01555,-65.64899,0.00116,0.37490
2631.89625,-7226.46157,144.98246,0.01065,0.06469
1790.29754,-4915.76666,53.92593,0.02535,0.11511
1862.12603,-5113.26498,61.82089,0.01885,0.11839
1001.00005,-2745.22150,-31.33209,0.00296,0.23959
1331.41249,-3654.10765,4.50403,0.00580,0.16030
2115.68002,-5809.45652,89.71992,0.00125,0.05266
679.66567,-1863.02621,-66.12520,0.01049,0.36839
283.35753,-773.43735,-109.13019,0.04766,0.10137
3294.96054,-9379.82458,140.61482,0.01428,0.04226
495.66289,-1411.49849,-98.34219,0.01369,0.48224
2191.39378,-6240.91072,47.46243,0.05632,0.01181
615.28400,-1751.34682,-88.21681,0.00145,0.07727
1137.43540,-3238.58293,-43.62269,0.03016,0.13349
1424.89049,-4062.45164,-19.27058,0.01823,0.08696
1914.71225,-5458.55350,22.60174,0.01012,0.06683
1240.31270,-3534.87333,-34.46863,0.00564,0.12868
1351.11132,-3854.37069,-24.93818,0.00115,0.08023
753.04507,-2146.69987,-76.12755,0.00744,0.25702
658.82556,-1877.70984,-84.16098,0.07618,0.22958
26.47475,-74.71400,-138.45212,0.06838,0.37339
2661.99608,-7310.21345,147.32952,0.02992,0.03661
552.80337,-1575.38612,-93.42753,0.02078,0.18268
241.30037,-657.93455,-113.63414,0.00647,0.11878
742.07567,-2034.57832,-59.29233,0.00313,0.30076
3368.65820,-9298.52494,215.03095,0.00133,0.04378
603.98794,-1663.05375,-75.91611,0.00294,0.28338
1377.90945,-3799.91126,6.20969,0.01167,0.13303
1457.21204,-4018.68418,14.42135,0.00207,0.09083
5391.17322,-14881.42310,428.12438,0.03169,0.01674
1136.34653,-3133.60138,-19.98117,0.00310,0.09782
747.15037,-2058.42504,-60.91879,0.00835,0.16997
227.37287,-623.29885,-115.73946,0.06266,0.21801
4706.57162,-12997.05997,358.35753,0.03743,0.02559
809.28880,-2231.10222,-54.33102,0.03510,0.30482
2134.18134,-5886.80810,86.32713,0.00489,0.09918
3228.85798,-8905.49027,202.77553,0.02698,0.05975
660.93617,-1819.80634,-69.66342,0.00000,0.38510
1477.12311,-4071.51568,17.19753,0.00199,0.14630
1106.31849,-3047.77142,-22.23392,0.01030,0.16512
514.88850,-1467.37972,-96.76908,0.00581,0.46814
997.83046,-2844.88291,-55.23661,0.00231,0.11431
2730.22826,-7788.56936,93.22182,0.01331,0.04070
686.26954,-1957.12557,-81.96660,0.00565,0.24591
6762.24829,-19269.43380,438.19218,0.01354,0.01555
770.47428,-2121.41333,-58.32932,0.03889,0.33632
2329.90265,-6422.79741,107.54882,0.00250,0.03510
4284.49423,-11821.62525,315.85698,0.00504,0.01871
1172.51604,-3231.72586,-14.97918,0.00472,0.09691
1248.37827,-3558.33418,-33.03178,0.01692,0.14439
1051.82698,-2996.55049,-49.85213,0.00852,0.18832
1209.37660,-3445.72786,-36.74792,0.00315,0.14339
475.44836,-1354.22054,-99.81978,0.03877,0.47090
3531.60235,-9758.99960,235.63290,0.02700,0.02678
671.51324,-1850.61222,-68.42248,0.00192,0.17172
1276.06476,-3521.14469,-3.90609,0.07590,0.12125
375.09355,-1032.35156,-99.97604,0.00128,0.78090
613.68071,-1747.63570,-87.75923,0.00495,0.28666
1204.18561,-3432.35466,-37.21228,0.00951,0.13797
1001.69703,-2853.38601,-54.65119,0.00657,0.15499
1453.16472,-4139.48758,-15.63418,0.00416,0.05409
3245.97083,-8963.26667,204.08520,0.00841,0.05255
194.29890,-532.31563,-119.20656,0.00654,0.20570
713.10527,-1965.72506,-64.13213,0.02879,0.34720
711.95174,-1962.18842,-64.15197,0.03577,0.36092
419.61973,-1194.66550,-104.52120,0.87212,0.25323
2186.59764,-6230.25867,47.72059,0.00212,0.02894
404.29133,-1151.26735,-105.80301,0.04015,0.53704
1089.81163,-3106.05206,-46.75686,0.03854,0.11857
3229.05831,-9202.33490,138.32962,0.03132,0.03675
612.85459,-1745.80437,-87.66108,0.00176,0.33236
466.33707,-1284.21087,-90.23533,0.04525,0.19091
3210.83390,-9102.31157,124.98987,0.00795,0.04828
2382.65423,-6756.26886,56.68741,0.00674,0.07391
2436.95797,-6909.89128,61.50910,0.00130,0.06663
1538.71078,-4362.76235,-12.91273,0.00886,0.08928
2894.70849,-8206.50131,99.36524,0.02527,0.03564
387.63300,-1097.85520,-108.59458,0.01405,0.60894
475.44904,-1308.81866,-89.46312,0.00145,0.54936
3144.37447,-8680.92736,193.65598,0.02620,0.00292
994.32117,-2743.05316,-34.47379,0.00374,0.11663
684.40417,-1886.95100,-67.15336,0.00208,0.22613
1067.25680,-2944.99519,-26.39094,0.04222,0.09051
626.96458,-1727.83151,-73.09654,0.00755,0.19276
868.90119,-2463.44186,-68.92755,0.01222,0.17507
635.97800,-1802.85766,-88.16840,0.00116,0.23094
1683.28848,-4771.44661,-1.85542,0.06706,0.04357
1056.40881,-2994.25618,-53.48179,0.01179,0.14296
714.37313,-2024.92778,-81.60710,0.00213,0.20160
479.51681,-1357.16372,-100.88101,0.02871,0.43662
288.30293,-815.89335,-116.80947,0.00127,0.77039
1139.18735,-3140.62352,-18.39669,0.02936,0.21662
1018.08702,-2806.08420,-31.23140,0.00115,0.24171
467.43245,-1286.78005,-89.91213,0.00216,0.64852
366.44400,-1007.27449,-100.64551,0.00144,0.76200
993.29464,-2738.37641,-33.95308,0.00833,0.23628
759.13092,-2150.04762,-77.81842,0.00944,0.19420
938.34179,-2657.72964,-62.60174,0.01453,0.20909
1361.05524,-3855.86298,-27.37268,0.00960,0.13958
3371.73579,-9307.42548,218.90470,0.07420,0.05085
1274.53049,-3514.04772,-3.70892,0.00161,0.09079
948.86929,-2616.11471,-38.70306,0.03030,0.13528
544.92493,-1499.84815,-81.58830,0.00841,0.45960
562.01795,-1547.55528,-79.87349,0.01492,0.17190
573.61306,-1579.40444,-78.38899,0.04432,0.23942
363.91055,-1000.53613,-100.88615,0.01073,0.29479
2269.58306,-6431.13079,48.18516,0.01412,0.07315
760.26933,-2153.44731,-77.77279,0.00115,0.19659
1016.16787,-2798.84513,-31.73265,0.00349,0.23331
3147.62083,-8677.37413,195.07319,0.00197,0.05254
651.26669,-1791.66189,-70.44704,0.06148,0.33735
373.37003,-1025.50048,-100.02769,0.03573,0.63014
519.24692,-1427.19253,-84.48609,0.03623,0.44131
957.06599,-2634.35074,-37.87574,0.06765,0.18754
1839.92151,-5067.41496,55.98399,0.00172,0.07997
659.70368,-1814.70783,-69.71745,0.01187,0.34519
848.65673,-2403.00072,-70.06163,0.00979,0.24319
1671.53613,-4736.18199,-1.79710,0.00181,0.07125
201.93933,-571.02715,-124.03022,0.04534,0.74028
8431.03125,-23890.30171,562.74124,0.06165,0.00397
631.50813,-1787.36478,-88.28977,0.00187,0.35208
581.97626,-1600.40458,-77.59126,0.00306,0.53137
4730.26553,-13401.09197,253.81051,0.00277,0.01900
4644.65057,-13183.18823,245.92374,0.00552,0.02981
505.53899,-1433.19507,-98.65063,0.00193,0.45739
675.40084,-1914.76941,-84.40082,0.01312,0.30505
234.98002,-643.25466,-114.84859,0.07982,0.32641
672.67796,-1849.56370,-68.11229,0.00140,0.32718
86.61252,-233.98219,-130.56839,0.01145,0.40595
4629.60508,-12766.57509,352.61525,0.00115,0.01058
255.02777,-698.60244,-112.59359,0.03134,0.44188
3947.03070,-10882.22048,281.42754,0.00623,0.01559
191.98454,-524.85607,-119.32053,0.03135,0.11166
410.81306,-1128.39527,-95.92074,0.01761,0.43252
1161.59780,-3294.29353,-44.28756,0.03453,0.15805
631.88592,-1736.92127,-72.43420,0.00262,0.33721
871.12693,-2396.94964,-46.81506,0.01178,0.22975
4932.61311,-13985.49222,265.57432,0.02486,0.01123
1099.71395,-3116.34722,-49.93481,0.07336,0.19495
57.23982,-160.94422,-136.11059,0.02141,0.26750
2345.17654,-6647.63892,53.81418,0.01293,0.05993
439.09608,-1243.55212,-104.35124,0.01605,0.25152
1038.45709,-2945.90275,-54.34243,0.09137,0.16980
823.58676,-2265.10321,-51.42825,0.01441,0.15546
1002.34626,-2759.73610,-32.52669,0.01643,0.26254
184.55697,-522.27114,-125.51942,0.02136,0.83420
924.50887,-2620.72659,-63.80868,0.01709,0.15346
927.61545,-2630.86969,-63.81509,0.00835,0.08531
587.16919,-1664.09153,-91.85736,0.00191,0.15782
319.61092,-905.30454,-114.10975,0.00788,0.44527
1127.98886,-3104.86391,-19.15251,0.01530,0.11001
1043.14824,-2870.48699,-28.05845,0.06140,0.07433
3098.50118,-8540.34506,191.70465,0.04257,0.01545
1712.22954,-4720.51265,43.23244,0.04523,0.07517
694.79903,-1912.88747,-65.36413,0.08977,0.35094
3463.47114,-9555.69252,231.50611,0.00332,0.01534
1675.44057,-4753.14152,-1.25936,0.02452,0.03759
1209.36276,-3429.76854,-39.71810,0.01657,0.06931
975.30648,-2765.65189,-59.66059,0.00198,0.13404
889.82357,-2523.45563,-66.55759,0.04124,0.12607
996.55952,-2826.39872,-57.49638,0.01355,0.12297
844.53518,-2394.03783,-69.85176,0.06288,0.18583
1005.96232,-2852.03944,-56.60009,0.01644,0.18971
771.50299,-2124.05042,-57.35503,0.00437,0.20027
3777.03832,-10421.69210,264.05004,0.04035,0.00816
1046.67243,-2885.12881,-27.67392,0.02221,0.12285
1285.53518,-3541.42615,-1.09602,0.00416,0.12633
365.78627,-1036.23993,-110.25712,0.04025,0.79825
467.63054,-1324.47549,-101.58789,0.00117,0.55635
2623.59137,-7230.70454,142.14197,0.04194,0.04247
8261.61504,-22781.56999,744.69872,0.05752,0.01424
333.76090,-945.30800,-112.77388,0.00137,0.62395
898.41370,-2547.07972,-65.43195,0.00150,0.19669
467.14784,-1322.79730,-101.77592,0.06690,0.22427
301.68583,-853.80227,-115.58972,0.03518,0.67204
533.88430,-1511.90866,-96.11023,0.02076,0.19699
2268.56569,-6431.32895,48.94549,0.03535,0.07209
1907.88106,-5408.16962,19.35540,0.27735,0.08938
872.54371,-2472.99432,-67.61128,0.00127,0.20003
2160.28143,-6125.99434,40.24292,0.02069,0.07049
862.54539,-2444.85668,-68.18431,0.00139,0.20755
1191.28996,-3372.45862,-41.28115,0.05657,0.16339
1178.23657,-3336.37259,-42.34337,0.01002,0.15535
887.75661,-2512.48257,-66.64045,0.01157,0.15915
6839.62088,-19372.89602,431.07978,0.04338,0.01451
2261.38317,-6402.06250,48.32168,0.02344,0.07803
1021.50451,-2891.24304,-55.14191,0.00129,0.17472
602.21480,-1703.71660,-90.34514,0.01220,0.33797
885.44597,-2506.65199,-66.91237,0.40619,0.06174
600.53770,-1699.64461,-90.73396,0.00257,0.35110
1062.48695,-2924.77795,-25.68242,0.00053,0.06628
194.54843,-531.84533,-118.86466,0.07136,0.13655
461.82903,-1272.26737,-90.60185,0.01197,0.29818
733.21616,-2023.54967,-61.38478,0.02091,0.30158
532.19819,-1466.52360,-82.89087,0.01721,0.46394
801.77331,-2212.07700,-54.32563,0.00116,0.29034
507.14826,-1434.05828,-98.39934,0.04521,0.37619
704.25747,-1992.45489,-81.92541,0.01370,0.20557
914.31703,-2588.40492,-64.61319,0.00597,0.14294
2012.60436,-5700.12345,26.94384,0.03596,0.03110
401.41464,-1135.45010,-107.28949,0.01400,0.61660
1068.86847,-3025.04585,-51.19904,0.01058,0.12241
81.79631,-230.08239,-133.92660,0.00495,0.26632
1098.16916,-3109.41678,-48.77401,0.00145,0.19652
2422.89138,-6862.99586,62.34175,0.00467,0.04092
414.23390,-1172.16582,-106.05492,0.03434,0.51446
4213.92862,-11934.18804,213.61745,0.00137,0.01345
757.05192,-2143.48005,-77.46576,0.00221,0.20025
626.87370,-1772.93092,-88.34924,0.00744,0.36702
682.16510,-1929.42933,-83.55692,0.01313,0.27587
17304.53395,-48974.46303,1315.35727,0.01519,0.00180
1161.18866,-3285.20650,-42.82427,0.01170,0.14661
1123.49163,-3178.00351,-46.01546,0.01820,0.19513
676.21489,-1912.91491,-83.90754,0.01459,0.31537
779.49653,-2204.43678,-75.05779,0.02362,0.28274
3398.38029,-9387.61963,222.98445,0.00122,0.03066
987.11662,-2725.05039,-34.73275,0.01204,0.11981
482.47905,-1329.73982,-88.34148,0.00115,0.26954
1323.21640,-3652.85822,1.83635,0.00851,0.14489
1086.10732,-2999.18758,-23.91528,0.01353,0.15807
492.57412,-1357.87408,-87.18251,0.08789,0.44450
1269.88609,-3508.02908,-4.17031,0.00215,0.07324
588.73213,-1664.17731,-91.35904,0.00123,0.30628
1344.47524,-3802.69221,-27.83655,0.01598,0.08705
1604.56220,-4539.11376,-5.69469,0.01826,0.04542
382.61382,-1081.05972,-108.52260,0.06077,0.36715
1503.07598,-4253.57109,-14.38417,0.01806,0.05697
623.16818,-1762.30488,-88.25169,0.03685,0.16094
662.64655,-1825.86729,-68.92240,0.00318,0.25783
954.08180,-2630.82860,-37.48594,0.00388,0.09872
970.90543,-2679.37378,-35.58287,0.01766,0.14543
1506.45473,-4156.52050,21.81341,0.00321,0.14982
835.87034,-2365.41979,-70.54693,0.01939,0.15861
920.81037,-2608.83163,-63.48569,0.01062,0.22194
6810.82783,-19298.09952,431.70774,0.01082,0.01484
1015.10903,-2875.50882,-55.34554,0.01758,0.16952
701.12186,-1985.32628,-81.72057,0.00125,0.30166
1257.43381,-3562.33658,-34.74658,0.00296,0.13611
768.26576,-2175.22602,-75.97475,0.01422,0.24640
1144.80595,-3159.73040,-17.03332,0.03959,0.19199
453.02833,-1282.87909,-102.68454,0.01129,0.52248
571.36102,-1575.01696,-78.50319,0.05066,0.48348
1135.10763,-3131.28529,-18.21675,0.00443,0.07787
902.67691,-2489.83126,-43.13598,0.05803,0.11545
1096.82385,-3026.38284,-22.10858,0.07146,0.13776
2401.32608,-6630.62509,117.51150,0.03049,0.02421
924.97379,-2554.17803,-40.85039,0.06581,0.25767
577.97776,-1594.65643,-77.85715,0.02544,0.25789
669.23330,-1847.79223,-67.94635,0.00114,0.28383
904.09932,-2495.78251,-42.74047,0.06186,0.15851
612.33306,-1689.82826,-73.93545,0.02726,0.13328
699.82994,-1931.79985,-64.62985,0.01368,0.34247
728.26558,-2010.08417,-61.93301,0.00181,0.33556
722.39879,-1995.07715,-62.16380,0.01112,0.28857
155.13488,-424.54931,-123.16232,0.01055,0.58797
2825.37189,-7810.63085,162.65269,0.24325,0.06754
2150.96867,-5944.88620,91.58295,0.01201,0.04087
1025.34087,-2832.26207,-29.61458,0.00245,0.10829
626.57821,-1729.44423,-72.39944,0.09452,0.10921
1085.24147,-2996.90936,-22.89472,0.00142,0.10466
1367.57564,-3777.06531,7.56541,0.02208,0.09613
1346.76073,-3718.04614,5.62196,0.04089,0.08357
977.62953,-2699.41263,-34.28510,0.03305,0.16376
-3.05161,10.14949,-141.04038,0.00116,0.51488
1402.78178,-3972.34177,-22.85981,0.01056,0.06221
1643.68960,-4654.63454,-2.53706,0.01275,0.04473
966.28350,-2736.10430,-59.37261,0.03648,0.21131
461.21920,-1306.13420,-101.86573,0.02813,0.15538
2918.79768,-8064.50975,174.33879,0.00184,0.06541
670.57841,-1898.55535,-84.10394,0.01179,0.26645
14389.68793,-40749.16662,1074.55334,0.05843,0.00000
1137.42261,-3220.18454,-44.53013,0.00830,0.17195
997.74056,-2825.44546,-56.34339,0.01191,0.14877
1426.13557,-4039.31731,-19.96226,0.07191,0.14071
575.66586,-1628.64949,-92.02869,0.00495,0.36379
382.32511,-1052.30849,-98.66191,0.00114,0.33805
925.85788,-2555.13507,-40.30967,0.04634,0.10222
892.90201,-2463.96062,-43.78941,0.00605,0.16603
1778.33919,-4911.69279,51.53359,0.00260,0.03642
1191.60789,-3290.85549,-11.37205,0.09270,0.10523
727.53781,-2006.86531,-61.10417,0.00359,0.18797
400.93715,-1104.21600,-96.47052,0.03193,0.51873
812.32324,-2241.99187,-52.10857,0.03450,0.18139
693.89267,-1915.01957,-64.95671,0.01363,0.15981
480.03344,-1357.43938,-100.19360,0.01331,0.15931
806.74135,-2283.78588,-72.72701,0.00684,0.11630
889.91085,-2519.49661,-65.63630,0.01920,0.15465
870.63553,-2463.86572,-67.02177,0.01872,0.11371
454.72305,-1250.87621,-90.89507,0.00126,0.44545
936.17611,-2581.52181,-39.02940,0.01405,0.25746
943.02814,-2600.19315,-38.31796,0.03353,0.25696
877.08262,-2416.35490,-45.45347,0.00870,0.14146
1928.05974,-5460.16984,22.28583,0.02655,0.06225
820.18745,-2322.01242,-71.43065,0.01274,0.06845
3567.95329,-10109.09648,161.04504,0.09018,0.04107
315.76972,-893.29733,-113.99304,0.05839,0.32740
406.44254,-1153.18128,-106.63758,0.00633,0.60923
1539.64588,-4370.24867,-11.35086,0.01566,0.11544
2167.63184,-5980.65237,93.27327,0.01079,0.08425
2256.04480,-6406.70719,48.22027,0.00182,0.06399
2390.64318,-6596.59095,116.80494,0.02051,0.05067
798.62259,-2200.53848,-53.97084,0.04938,0.32795
6187.22704,-17083.22986,524.36922,0.03801,0.00180
799.17672,-2266.73406,-73.91080,0.01642,0.31283
796.21746,-2259.22133,-74.19740,0.03121,0.05849
721.23576,-2046.66012,-80.53578,0.03434,0.13971
675.02955,-1916.01064,-84.19503,0.03428,0.27795
2021.97940,-5742.64525,28.73176,0.03240,0.04127
955.78227,-2711.14281,-60.73447,0.05513,0.07246
339.15705,-931.62503,-103.29972,0.00249,0.42715
1073.18011,-2956.91336,-24.29323,0.00264,0.11320
1006.02888,-2772.09676,-31.29102,0.00971,0.22084
2283.03472,-6297.89848,107.16844,0.02623,0.03994
1045.58683,-2966.27115,-52.96061,0.00115,0.18451
615.27964,-1744.64953,-88.94557,0.01121,0.37078
652.01169,-1847.96458,-85.81896,0.00721,0.25363
670.83268,-1901.39089,-84.29705,0.00653,0.26939
494.75562,-1402.03107,-99.08692,0.01393,0.40910
4105.15762,-11646.91359,206.42780,0.87477,0.03287
539.93507,-1530.51072,-95.10846,0.00357,0.20374
386.03364,-1094.08303,-108.03274,0.00289,0.60990
191.83099,-524.64205,-118.99352,0.01548,0.13811
2338.67516,-6451.97427,113.35938,0.05000,0.07876
823.28286,-2267.24258,-50.62244,0.00238,0.16824
8217.62384,-22683.15623,747.44507,0.03546,0.01110
418.26185,-1149.44109,-94.65788,0.00116,0.12839
949.49025,-2691.93063,-60.87209,0.01190,0.20789
295.58819,-837.33198,-115.87584,0.01289,0.77360
756.13608,-2081.75734,-58.17020,0.00115,0.26107
881.35322,-2427.37365,-44.55627,0.00712,0.28734
1483.61719,-4207.44645,-16.19687,0.05204,0.13873
1416.77771,-4018.64578,-21.75952,0.01063,0.08593
1570.80079,-4457.57578,-8.50052,0.00851,0.03894
1657.24937,-4700.49552,-0.54559,0.01698,0.08819
594.47381,-1687.66487,-90.79065,0.00248,0.41094
806.06317,-2288.31196,-72.94471,0.00116,0.30933
5741.00326,-16303.28725,343.48358,0.00114,0.01545
2692.12667,-7648.22222,86.31000,0.00826,0.02025
781.17220,-2217.56453,-74.70514,0.02569,0.22909
774.46434,-2199.29806,-75.28463,0.01045,0.03372
976.81058,-2772.83031,-58.53147,0.02241,0.20185
3279.64537,-9044.73854,214.39312,0.02551,0.05146
651.59207,-1794.04874,-69.40438,0.05394,0.20804
611.61249,-1683.84908,-73.73803,0.01631,0.39256
352.61213,-968.72466,-101.62790,0.01722,0.78461
671.03491,-1847.12377,-67.03977,0.01567,0.14526
493.47522,-1400.38412,-99.06968,0.08341,0.44333
294.82674,-836.41608,-115.84002,0.01992,0.98011
1165.80257,-3215.42164,-13.56807,0.01817,0.18413
602.16096,-1658.41635,-74.57294,0.01940,0.43145
1722.80702,-4755.95907,47.10110,0.00324,0.11422
1955.41390,-5554.82248,23.58708,0.00519,0.06957
353.94601,-1004.52216,-111.00106,0.00185,0.37654
415.85232,-1180.16561,-105.70433,0.01191,0.38423
1421.76848,-4039.14372,-21.16269,0.01071,0.07072
540.66783,-1535.38174,-95.03889,0.00587,0.19970
716.10105,-2032.20385,-80.41251,0.00354,0.12047
523.99673,-1442.73017,-82.98026,0.00302,0.31817
939.98798,-2668.26402,-61.31961,0.00265,0.19115
1729.91436,-4911.13957,5.34131,0.02812,0.04955
471.44064,-1337.11205,-100.84603,0.00117,0.45824
3085.59482,-8759.95981,120.48771,0.02470,0.04076
739.48270,-2099.01112,-77.95641,0.01416,0.22291
1702.41792,-4700.58113,44.45632,0.02047,0.08377
95.02148,-268.62460,-132.65362,0.03092,0.30746
2640.90903,-7291.00954,145.53163,0.00271,0.05342
433.35768,-1192.93703,-92.98043,0.00561,0.55409
1344.59324,-3711.28595,5.30804,0.01461,0.08968
1517.57212,-4189.48377,24.23175,0.01082,0.04945
513.34853,-1414.04583,-84.16995,0.01515,0.48935
3178.15547,-8776.21283,204.72188,0.00267,0.04822
143.58800,-392.35748,-124.18991,0.01383,0.61849
733.22752,-2020.20138,-60.41749,0.04320,0.37613
3801.25206,-10489.12707,272.45176,0.03490,0.04373
205.54638,-563.16183,-117.38608,0.03524,0.14017
1280.11160,-3532.05807,-0.74534,0.07473,0.14786
1578.82736,-4357.07089,31.80987,0.00162,0.13309
672.81859,-1852.99769,-66.65179,0.03872,0.29826
614.02905,-1690.20136,-73.03032,0.01309,0.26007
12018.35490,-33165.00754,1164.95388,0.05580,0.00368
531.98216,-1463.80311,-82.06562,0.00309,0.57885
849.48054,-2410.61709,-68.94039,0.02087,0.10794
404.81571,-1148.22778,-106.40141,0.00121,0.13252
2077.89106,-5898.25795,36.01355,0.02513,0.06437
917.10789,-2602.92303,-62.79754,0.01822,0.14789
998.65341,-2834.91319,-55.89714,0.02181,0.06820
685.91934,-1946.49814,-82.37510,0.02788,0.19931
1476.84596,-4192.35323,-15.91624,0.02289,0.07793
3514.96100,-9967.40054,155.97716,0.00694,0.02369
4020.24513,-11398.82217,199.35232,0.00548,0.03824
1168.33492,-3311.69245,-41.72569,0.00228,0.17174
119.29430,-337.02328,-130.64631,0.00524,0.24201
1100.38328,-3120.53734,-47.58275,0.04849,0.18036
402.83472,-1140.81372,-106.63192,0.02599,0.60872
1584.11476,-4492.35394,-6.48469,0.00129,0.14090
788.98206,-2236.91209,-73.85454,0.00156,0.25172
524.09953,-1484.75719,-96.52306,0.02210,0.34265
1735.15749,-4918.15236,6.22320,0.00713,0.11210
1381.58802,-3915.72185,-23.39197,0.01698,0.10219
1529.50072,-4337.05216,-11.24015,0.00203,0.08159
3262.66873,-9252.18578,136.71066,0.03613,0.01936
739.47529,-2096.34903,-77.94061,0.04608,0.17442
403.11009,-1141.24041,-106.43250,0.01610,0.59137
2261.22775,-6408.69565,51.43592,0.03050,0.07496
1165.97667,-3302.27917,-41.50123,0.07678,0.16712
753.94327,-2076.51663,-57.91563,0.02355,0.17480
909.52915,-2506.79821,-40.84957,0.01210,0.13906
845.29420,-2329.08639,-47.74257,0.05105,0.26557
1394.35356,-3845.84952,11.95242,0.00479,0.07674
613.12296,-1684.06065,-74.20097,0.00332,0.42357
520.56938,-1429.14579,-83.95076,0.01075,0.50826
549.01706,-1507.29167,-80.86941,0.09321,0.46910
1643.57860,-4656.87343,-0.95892,0.00568,0.09375
2353.48085,-6669.97136,59.80614,0.04490,0.06973
1121.40443,-3083.13433,-19.18679,0.02092,0.20637
12988.51479,-35778.65715,1257.56818,0.06670,0.00409
1764.61042,-4857.16583,49.51278,0.01641,0.11297
959.07497,-2716.87770,-58.94605,0.00397,0.21826
1144.30576,-3241.45902,-42.88290,0.08144,0.17821
600.99721,-1701.09481,-89.65583,0.00191,0.36014
814.44047,-2307.65499,-71.38964,0.02539,0.25431
450.67255,-1275.43304,-102.49048,0.00441,0.37126
1681.73604,-4763.25700,2.23278,0.21496,0.04102
1398.49948,-3962.06664,-21.67947,0.00233,0.05429
3335.94409,-9455.11834,144.14715,0.09769,0.02357
478.62543,-1355.79528,-99.94653,0.00728,0.22684
792.51602,-2247.59898,-73.30366,0.00282,0.07975
1266.32919,-3591.56100,-33.10079,0.06822,0.17602
1535.61703,-4357.03549,-9.94510,0.00199,0.05199
810.70509,-2298.74014,-71.39821,0.05235,0.26002
1451.42016,-4116.94093,-17.47598,0.03346,0.13903
519.24405,-1472.31398,-96.56138,0.00170,0.40829
1867.80996,-5138.71847,60.48423,0.04979,0.03824
1302.82165,-3585.36237,-0.01685,0.00880,0.10109
1361.94095,-3744.82517,6.43269,0.00644,0.04092
1120.71582,-3080.64558,-19.25781,0.03374,0.19076
364.20099,-998.04709,-100.56552,0.04225,0.59106
11824.16678,-33567.18799,868.11963,0.00117,0.00491
536.66360,-1521.47885,-94.72750,0.07011,0.42567
748.34071,-2121.00998,-76.97670,0.01566,0.14255
536.36409,-1520.27890,-95.04613,0.05204,0.39747
2554.61833,-7245.49397,77.07995,0.00319,0.02359
3597.60890,-9900.19169,247.66352,0.01553,0.02867
1722.70835,-4738.54568,45.77271,0.00432,0.09481
1181.74661,-3247.70727,-12.37048,0.02754,0.19893
810.12490,-2225.99083,-52.35266,0.00580,0.28643
502.97832,-1379.61467,-85.35831,0.00161,0.49629
1070.08229,-2941.50700,-24.00750,0.00167,0.19536
2004.59804,-5685.22440,30.44021,0.01145,0.05320
201.37800,-570.30266,-123.58706,0.13865,0.12090
547.64318,-1552.61819,-93.97323,0.01192,0.15267
443.16575,-1256.21154,-102.95732,0.01189,0.64670
1009.01518,-2860.08384,-53.97813,0.00625,0.23390
701.06824,-1986.61454,-80.40946,0.02699,0.28145
539.41213,-1529.20869,-94.45433,0.05754,0.31784
645.59611,-1828.89371,-85.52811,0.00520,0.29154
510.09107,-1444.80316,-97.14304,0.00652,0.48404
1793.35747,-4931.00814,53.18102,0.00489,0.03188
509.63218,-1397.71974,-84.68759,0.00149,0.37536
661.83929,-1817.95169,-68.40522,0.02145,0.19448
1214.28163,-3342.10136,-8.88805,0.01159,0.16527
1270.17057,-3495.28807,-2.83365,0.00307,0.17327
1531.66018,-4214.69899,25.45164,0.01129,0.05229
539.17478,-1481.75481,-81.51710,0.02272,0.47460
1720.69360,-4738.36740,46.32145,0.01644,0.12495
1082.47862,-3066.96974,-48.11889,0.02344,0.10428
1593.43422,-4516.26210,-4.41729,0.00574,0.07760
436.70968,-1236.65874,-103.29071,0.04838,0.20162
2373.81255,-6729.53622,63.25245,0.06796,0.07037
1285.87408,-3540.06993,-1.37373,0.06140,0.09004
2083.81866,-5908.87588,38.10826,0.00515,0.03123
1689.22714,-4791.58841,4.01965,0.00302,0.06397
1731.12749,-4895.51899,5.33159,0.01300,0.11550
1140.02301,-3224.74683,-44.54050,0.00117,0.09516
518.31796,-1464.33542,-97.02703,0.00503,0.27992
822.37620,-2323.67143,-71.22278,0.01768,0.25196
468.39049,-1323.58350,-101.28430,0.01229,0.59168
3880.35594,-10685.85004,279.21798,0.04936,0.01782
661.70824,-1870.96814,-84.90450,0.02396,0.17694
10365.83190,-28569.56506,976.95668,0.07055,0.00323
1009.56750,-2777.50366,-30.83000,0.00277,0.10116
867.92880,-2386.90414,-45.98071,0.00349,0.17820
388.94956,-1067.56241,-97.84890,0.00155,0.44542
401.87370,-1103.11359,-96.38581,0.03579,0.80525
8772.63071,-24187.00514,806.51493,0.00533,0.00280
353.03911,-968.54531,-101.55002,0.00996,0.41512
853.26365,-2346.94493,-47.87507,0.00294,0.13851
934.31808,-2571.52368,-38.84142,0.02459,0.29824
595.14586,-1634.15420,-75.36235,0.00680,0.18404
900.62087,-2476.01955,-42.19601,0.06901,0.24929
1191.67686,-3278.25151,-10.58222,0.00228,0.17649
744.34019,-2046.05748,-58.82963,0.00766,0.19428
309.54491,-873.97699,-114.48999,0.00372,0.82526
1604.52837,-4537.98719,-4.80023,0.01252,0.13137
1698.84559,-4803.91027,3.42850,0.01397,0.13939
2043.68938,-5777.27781,31.86157,0.00117,0.05561
493.74860,-1394.30460,-99.00543,0.06462,0.25478
1372.38514,-3881.60188,-25.15652,0.01808,0.13453
1387.79152,-3924.25640,-23.19803,0.00112,0.10710
857.77499,-2425.45404,-68.02580,0.05301,0.21966
5272.84100,-14906.42511,307.18251,0.00168,0.01790
987.90849,-2789.93636,-56.80714,0.00174,0.18584
1359.79220,-3841.76023,-25.19289,0.00482,0.15240
473.46545,-1299.71866,-88.35047,0.01157,0.35945
364.46106,-999.21355,-100.09764,0.02543,0.50144
521.84542,-1430.76355,-83.45410,0.07851,0.25947
1615.51082,-4437.74391,35.01527,0.01289,0.12683
1385.39840,-3807.45562,10.27082,0.00293,0.09878
12796.03749,-35202.82191,1246.38647,0.05374,0.00540
639.34362,-1754.20340,-70.41947,0.03429,0.37973
824.45621,-2263.99919,-50.33940,0.09152,0.21208
4268.18393,-11741.31430,323.63655,0.01595,0.02926
802.07182,-2201.74251,-53.17022,0.03342,0.20057
3572.35425,-9823.40734,247.07350,0.05604,0.03950
906.67995,-2560.63369,-63.80690,0.03544,0.12099
980.93656,-2771.88852,-57.68684,0.07245,0.21322
1725.34127,-4876.66256,5.54453,0.00213,0.02138
2149.97132,-5908.89882,92.73077,0.06508,0.08129
1034.02651,-2840.34913,-28.21417,0.02924,0.15903
1329.19915,-3651.80336,4.10642,0.01037,0.08697
744.41065,-2043.31221,-59.29066,0.00998,0.32723
1063.65863,-2921.81074,-24.65671,0.00495,0.18542
705.13695,-1935.22963,-63.08664,0.06199,0.33546
2228.20107,-6297.50854,48.57192,0.00543,0.06739
536.85906,-1516.24052,-95.17115,0.00945,0.15278
552.29254,-1560.30410,-93.72153,0.00460,0.27780
1376.98164,-3896.57701,-23.96652,0.06108,0.09535
345.10880,-975.07439,-111.43187,0.00289,0.69280
872.70753,-2468.62259,-66.51846,0.00772,0.22704
481.32351,-1318.42219,-87.63449,0.00196,0.56574
864.89156,-2373.07112,-45.55822,0.00386,0.29681
1900.88798,-5223.79266,67.01233,0.00510,0.11826
113.51407,-306.81606,-127.39328,0.00759,0.26321
1572.42723,-4318.22751,30.82995,0.05530,0.14082
886.50926,-2508.50603,-65.25309,0.02299,0.21711
5126.04568,-14509.75719,297.03289,0.08677,0.02319
3147.36771,-8904.94410,126.58688,0.00141,0.04959
990.45025,-2801.25319,-56.40572,0.02844,0.20181
1981.82465,-5443.57812,75.24755,0.00117,0.07667
1139.33255,-3129.46108,-15.81165,0.01238,0.17588
1584.72358,-4484.34427,-5.48454,0.02114,0.13157
2099.66737,-5775.01989,88.85873,0.01024,0.06074
2319.02253,-6380.96371,113.25005,0.01295,0.08362
1302.16541,-3581.16269,2.27291,0.00117,0.17243
2845.17109,-8051.13844,100.24459,0.01334,0.02864
3972.69454,-11241.45326,196.13922,0.01575,0.00908
7203.83963,-20390.33307,471.27289,0.01978,0.00283
784.89748,-2220.65157,-74.09213,0.03972,0.15539
654.73031,-1852.37939,-85.09122,0.02034,0.25214
1000.91507,-2831.44991,-55.28290,0.01081,0.08893
690.05923,-1952.17953,-81.80901,0.02594,0.20088
3812.99188,-10785.28893,184.31107,0.02015,0.03473
815.74076,-2305.05909,-70.97491,0.00561,0.26231
3221.14007,-9107.23712,134.95206,0.00552,0.04681
2447.69800,-6922.15755,68.89957,0.00330,0.07341
2045.09210,-5785.71010,34.62336,0.05055,0.08895
838.79272,-2371.34177,-68.67119,0.00756,0.20012
441.15507,-1245.87679,-103.09384,0.00656,0.63473
1314.78518,-3612.88619,3.31595,0.02079,0.06922
188.19135,-513.19784,-119.29544,0.00132,0.77275
890.00764,-2514.83242,-64.70203,0.01597,0.28923
566.27363,-1599.45699,-92.29601,0.00792,0.45197
331.75365,-908.52875,-103.72273,0.07190,0.33184
873.98749,-2400.92970,-44.38627,0.01290,0.08194
3258.85339,-8966.80106,216.19455,0.05419,0.04352
992.38156,-2727.29257,-31.32258,0.00641,0.09534
1195.27144,-3287.33134,-9.76897,0.00700,0.10086
1364.39441,-3750.08003,9.02674,0.00117,0.11855
7388.57898,-20325.12898,667.14085,0.04290,0.01758
1904.64395,-5237.35641,68.42128,0.02192,0.08428
